ply
format ascii 1.0
element vertex 1242
property float x
property float y
property float z
property uchar red
property uchar green
property uchar blue
end_header
25.2777 50.9203 -26.174  255 255 255
-15.4026 42.4743 6.18993  255 255 255
-34.2621 41.2721 15.0478  255 255 255
-34.1895 41.1952 15.2268  255 255 255
13.6869 43.3032 -5.66231  255 255 255
8.34252 43.4437 -4.86594  255 255 255
85.9544 11.4139 60.12  255 255 255
-63.3648 8.82103 112.858  255 255 255
-62.9239 8.45059 112.925  255 255 255
8.6282 48.8473 -19.9818  255 255 255
-42.3111 9.38205 104.758  255 255 255
-10.9115 41.9057 2.36277  255 255 255
-11.1895 42.1789 1.81364  255 255 255
-15.1673 41.0979 5.46363  255 255 255
-9.95437 41.7049 1.57161  255 255 255
30.2093 40.7503 -8.99172  255 255 255
-39.6101 8.58059 104.262  255 255 255
-18.3224 46.4186 -8.101  255 255 255
4.52886 46.2908 -15.4063  255 255 255
23.3278 40.6903 -7.73363  255 255 255
23.2732 40.7925 -7.92161  255 255 255
11.6824 41.3943 -6.0606  255 255 255
16.858 41.3433 -7.81238  255 255 255
-50.6888 8.36018 107.252  255 255 255
95.843 12.3176 50.6094  255 255 255
-10.4682 40.8322 1.58215  255 255 255
35.3501 40.2197 -11.1026  255 255 255
-13.2922 40.5811 2.97867  255 255 255
8.7459 40.422 -4.2244  255 255 255
11.921 40.6641 -6.17813  255 255 255
-36.6104 39.8793 11.4274  255 255 255
88.1149 31.0781 2.45401  255 255 255
-68.5894 7.3483 113.046  255 255 255
-68.5201 7.38848 113.152  255 255 255
4.57944 40.0748 -3.51483  255 255 255
4.57185 40.0851 -3.53607  255 255 255
39.4366 38.5358 -10.1019  255 255 255
122.356 16.3062 27.7264  255 255 255
3.30061 39.3698 -2.37182  255 255 255
3.20369 39.5017 -2.58879  255 255 255
10.3998 39.5962 -5.9561  255 255 255
124.109 16.3319 26.4844  255 255 255
-51.0806 6.57025 107.91  255 255 255
-20.843 7.6023 95.9698  255 255 255
-34.9805 37.34 14.7906  255 255 255
-16.7024 38.4669 5.98435  255 255 255
-16.7034 38.4777 5.96611  255 255 255
-24.6304 37.9068 9.2352  255 255 255
-21.0146 44.3765 -8.80816  255 255 255
-15.4032 38.8491 3.69276  255 255 255
-15.4389 38.8811 3.47831  255 255 255
38.993 37.5978 -9.97924  255 255 255
50.1737 38.8476 -16.9735  255 255 255
73.8464 16.7628 42.6168  255 255 255
41.5213 37.367 -10.5011  255 255 255
22.8435 41.3353 -16.0621  255 255 255
22.5523 37.3903 -6.06391  255 255 255
108.224 28.4067 -1.49122  255 255 255
-73.1966 5.11312 116.281  255 255 255
-25.7364 37.4029 9.26229  255 255 255
6.48925 38.1567 -3.80879  255 255 255
6.37931 38.4044 -4.25822  255 255 255
30.3402 37.4943 -9.68877  255 255 255
24.9908 37.7282 -8.95776  255 255 255
-33.0524 6.13678 100.152  255 255 255
34.1439 37.3152 -11.1251  255 255 255
50.9822 36.6627 -14.6656  255 255 255
38.8134 43.6167 -28.8204  255 255 255
41.6526 36.0655 -11.0783  255 255 255
-18.6969 36.3151 6.41771  255 255 255
-5.4989 37.063 0.277895  255 255 255
18.9374 37.2752 -8.34191  255 255 255
-64.2478 5.38562 110.411  255 255 255
4.8645 36.5226 -2.04788  255 255 255
4.56303 37.0371 -3.29535  255 255 255
25.9503 36.1775 -9.42354  255 255 255
-3.08961 43.8139 -19.2472  255 255 255
-28.1723 35.2709 10.1439  255 255 255
-29.1525 32.8957 15.5428  255 255 255
-45.3295 4.43613 104.25  255 255 255
48.5418 39.2197 -27.5083  255 255 255
-3.5239 35.3927 -0.155012  255 255 255
39.6817 34.3258 -10.4396  255 255 255
40.8451 31.6875 -3.78619  255 255 255
-29.5356 3.88545 98.8999  255 255 255
21.2 42.1357 -26.8961  255 255 255
-29.4016 32.7771 13.5645  255 255 255
24.1205 34.9127 -9.5776  255 255 255
101.108 6.31202 49.9142  255 255 255
-28.2505 33.7676 9.95359  255 255 255
11.4373 34.8345 -5.96698  255 255 255
28.5768 42.1328 -29.7343  255 255 255
-25.4603 3.64777 97.4574  255 255 255
-22.019 33.6519 8.17122  255 255 255
23.5716 40.5305 -24.4079  255 255 255
27.2811 33.976 -8.94275  255 255 255
-9.65885 34.1652 0.854593  255 255 255
28.292 33.5072 -9.87549  255 255 255
-28.077 32.747 10.2871  255 255 255
23.4864 33.8311 -9.48517  255 255 255
-9.37692 33.5805 0.683466  255 255 255
-27.7573 2.69617 97.8992  255 255 255
-66.3316 1.20197 113.268  255 255 255
-16.5401 33.1986 3.32611  255 255 255
40.165 32.1718 -11.0583  255 255 255
-56.0814 1.92287 108.116  255 255 255
-20.6159 32.3091 6.79158  255 255 255
-46.4338 2.05742 104.575  255 255 255
-46.4338 2.05742 104.575  255 255 255
-7.59404 37.8197 -12.958  255 255 255
23.9783 33.0948 -10.1469  255 255 255
-35.6382 2.05023 100.798  255 255 255
-8.59893 32.7029 0.688031  255 255 255
-43.0457 1.83518 103.822  255 255 255
4.9714 33.3496 -6.3515  255 255 255
-8.43693 31.2757 3.03317  255 255 255
22.9523 32.4667 -10.3317  255 255 255
31.6664 31.6709 -11.0737  255 255 255
-27.7593 30.9281 9.27993  255 255 255
32.2021 31.6001 -11.7388  255 255 255
-28.8174 31.2236 8.66222  255 255 255
-3.51414 31.7705 -1.41671  255 255 255
-3.75778 32.1068 -2.29466  255 255 255
-67.8557 -0.107538 114.232  255 255 255
-67.8562 -0.107511 114.23  255 255 255
91.4229 -0.971911 66.8819  255 255 255
-13.0297 37.1479 -13.2638  255 255 255
-29.5562 0.590984 98.6876  255 255 255
20.8018 31.2834 -9.69447  255 255 255
-10.8928 30.4134 0.808309  255 255 255
-19.2554 30.854 3.39906  255 255 255
-19.3388 30.9514 3.24685  255 255 255
19.1426 30.9708 -9.14296  255 255 255
-39.1047 28.7577 15.0495  255 255 255
39.3567 28.4487 -8.07318  255 255 255
-52.344 -2.32172 113.395  255 255 255
38.286 24.3313 1.59875  255 255 255
29.3103 29.6242 -10.8492  255 255 255
30.6625 28.9278 -10.0461  255 255 255
88.7304 0.993013 56.7877  255 255 255
-26.7894 27.4515 10.6387  255 255 255
9.2271 35.0222 -21.5508  255 255 255
8.51112 36.0596 -23.9695  255 255 255
31.2117 28.2789 -10.1613  255 255 255
27.4578 34.8636 -26.2872  255 255 255
28.9624 28.291 -10.7348  255 255 255
28.5554 33.9793 -24.7228  255 255 255
-23.7154 27.1241 9.47594  255 255 255
14.0209 28.138 -6.35805  255 255 255
-21.9677 27.3819 6.55463  255 255 255
-21.9581 27.3958 6.70056  255 255 255
-0.301748 28.6971 -4.88737  255 255 255
-16.2333 27.341 3.4836  255 255 255
-4.27047 28.9442 -5.24734  255 255 255
-12.1126 28.2836 -0.978018  255 255 255
-6.98852 28.6254 -4.17409  255 255 255
-7.04603 28.7444 -4.37876  255 255 255
-40.8869 31.5991 -0.164353  255 255 255
-30.9383 24.653 15.4897  255 255 255
-30.9437 24.6632 15.4903  255 255 255
51.2688 25.09 -12.6596  255 255 255
-24.9263 -2.7634 96.9827  255 255 255
-32.3315 31.247 -2.78835  255 255 255
-63.3137 -3.61886 110.794  255 255 255
-43.7428 -3.08042 103.346  255 255 255
32.0797 32.2172 -26.3043  255 255 255
33.5123 25.7146 -9.89496  255 255 255
37.9815 24.8999 -8.60034  255 255 255
-33.3335 24.1753 15.5081  255 255 255
-33.5842 24.4283 14.98  255 255 255
-29.2108 24.3095 13.9065  255 255 255
-28.0921 24.3843 12.8633  255 255 255
-21.7783 25.5929 7.02248  255 255 255
-0.00110226 27.7911 -6.45919  255 255 255
22.7169 26.4557 -10.2889  255 255 255
-24.4371 24.9508 9.47154  255 255 255
-13.348 26.8547 -0.401047  255 255 255
17.4129 27.0675 -10.7023  255 255 255
-43.5583 -3.68053 103.274  255 255 255
45.6354 31.9482 -32.5626  255 255 255
11.1967 27.5272 -11.1169  255 255 255
8.90709 22.7433 2.29817  255 255 255
28.8225 25.4229 -10.2131  255 255 255
-67.7276 -4.27824 111.33  255 255 255
-24.7868 24.5808 8.61686  255 255 255
-21.6339 25.307 4.89494  255 255 255
-18.6031 25.3332 3.29668  255 255 255
-18.3659 25.0678 3.88399  255 255 255
-28.3296 23.7527 11.0119  255 255 255
-28.2069 23.6231 11.2563  255 255 255
-12.5241 25.9752 -1.26486  255 255 255
11.2332 26.6481 -10.9486  255 255 255
3.7288 26.6429 -9.36529  255 255 255
-9.70437 26.2602 -4.1915  255 255 255
-7.63026 26.1287 -4.50558  255 255 255
17.885 30.973 -25.0897  255 255 255
34.3834 24.2605 -11.7354  255 255 255
-24.7983 -4.70482 96.7713  255 255 255
4.98935 25.821 -8.28368  255 255 255
47.2271 24.1562 -16.2954  255 255 255
47.6266 23.3719 -14.4205  255 255 255
-26.3326 23.2904 8.74924  255 255 255
-8.28952 25.5917 -4.17683  255 255 255
80.6388 -5.50402 64.9566  255 255 255
-25.4671 23.447 8.01242  255 255 255
-50.4719 -5.61468 106.026  255 255 255
-23.0324 23.9286 5.24894  255 255 255
-10.2861 25.2611 -3.55825  255 255 255
-71.6404 -6.51887 114.762  255 255 255
-24.1634 -5.42422 96.3721  255 255 255
-24.7685 23.5062 5.36347  255 255 255
30.7214 23.8569 -13.2291  255 255 255
-21.2343 22.7992 5.88852  255 255 255
-24.5898 23.5893 4.02822  255 255 255
18.1079 23.9337 -11.0291  255 255 255
18.2578 23.6973 -10.6431  255 255 255
7.99495 24.2132 -9.28855  255 255 255
-56.2343 -6.7462 108.448  255 255 255
-27.7192 21.9374 8.0023  255 255 255
-26.4068 21.622 7.93917  255 255 255
-59.9041 -7.39193 109.169  255 255 255
-3.27796 23.3718 -6.2363  255 255 255
33.4402 21.5739 -12.2525  255 255 255
-70.1373 -8.53699 115.24  255 255 255
-65.5752 -8.18568 112.557  255 255 255
7.89244 22.906 -9.52477  255 255 255
-53.9015 -7.47122 106.589  255 255 255
-47.4966 -7.62325 104.623  255 255 255
-47.4966 -7.62325 104.623  255 255 255
-5.24723 22.3332 -5.07528  255 255 255
-17.2257 21.6642 0.338564  255 255 255
-28.8634 20.2174 8.70218  255 255 255
36.0487 20.7858 -14.514  255 255 255
-21.5011 20.5795 3.6872  255 255 255
9.61379 21.1481 -10.3419  255 255 255
16.526 25.9915 -25.062  255 255 255
-43.35 -9.05526 103.252  255 255 255
-31.7741 18.3506 11.5541  255 255 255
19.5453 20.3205 -12.6693  255 255 255
30.3988 19.8096 -14.0744  255 255 255
95.2126 -10.352 63.0297  255 255 255
5.4575 20.4744 -8.90863  255 255 255
33.1411 18.7974 -12.5591  255 255 255
-4.32839 20.2093 -5.689  255 255 255
4.23664 20.4171 -8.54529  255 255 255
-7.79517 20.304 -5.3311  255 255 255
50.6452 17.8981 -15.8713  255 255 255
90.7149 -8.68142 57.4411  255 255 255
-15.6725 19.9029 -1.93082  255 255 255
-11.066 19.5831 -2.91849  255 255 255
-47.9749 -10.1785 104.522  255 255 255
-26.7852 19.1382 3.32935  255 255 255
74.0838 -2.56029 45.0893  255 255 255
17.5946 19.3306 -13.0453  255 255 255
73.1317 -2.61904 44.9916  255 255 255
39.0523 17.3904 -13.3321  255 255 255
50.797 16.7757 -15.4165  255 255 255
-21.4201 17.6066 3.8905  255 255 255
-50.9217 -10.9348 105.666  255 255 255
38.8813 15.3086 -8.95166  255 255 255
18.8121 18.7344 -13.5797  255 255 255
16.8567 18.307 -12.971  255 255 255
-23.791 21.9083 -9.73939  255 255 255
-19.5994 17.4693 1.78621  255 255 255
43.897 15.7009 -13.5831  255 255 255
43.8468 15.9127 -13.8509  255 255 255
14.1618 17.4778 -11.0671  255 255 255
43.7649 16.8339 -16.3462  255 255 255
-20.8409 16.6942 3.23322  255 255 255
-10.8429 18.2069 -5.87691  255 255 255
-3.78743 17.4787 -6.33028  255 255 255
12.5012 17.7191 -12.1976  255 255 255
-9.11638 17.9404 -6.1983  255 255 255
-7.2848 18.1112 -7.22617  255 255 255
-21.3039 20.2461 -9.12303  255 255 255
33.0846 15.6709 -12.8213  255 255 255
33.0809 15.6813 -12.8262  255 255 255
-59.587 -12.3931 108.54  255 255 255
-48.4175 -12.2491 104.661  255 255 255
24.5344 16.4625 -16.673  255 255 255
-10.7096 17.1507 -4.31086  255 255 255
-10.9816 17.3785 -4.97463  255 255 255
52.6991 13.5205 -12.7787  255 255 255
-17.8447 -11.954 93.6229  255 255 255
41.0439 12.5719 -7.13663  255 255 255
-26.5376 15.6421 4.25137  255 255 255
-17.9934 15.5584 1.34852  255 255 255
-32.7653 18.6268 -2.52427  255 255 255
-10.8978 16.6501 -5.29351  255 255 255
-70.1039 -13.7631 112.474  255 255 255
-27.6368 14.531 5.10026  255 255 255
11.6507 15.9005 -12.1801  255 255 255
28.2257 14.6797 -14.7122  255 255 255
-19.9679 12.8061 4.72197  255 255 255
-19.7364 12.5512 5.46438  255 255 255
-2.25826 15.5475 -9.45539  255 255 255
38.9774 10.2299 -5.41835  255 255 255
39.119 12.2595 -11.6219  255 255 255
-19.1391 13.9777 0.235025  255 255 255
7.30237 16.2046 -15.7115  255 255 255
-28.5624 11.5178 11.2841  255 255 255
44.0632 11.9718 -13.1192  255 255 255
44.0348 12.0462 -13.2259  255 255 255
30.8582 13.0342 -14.1304  255 255 255
-44.6274 -14.9484 103.338  255 255 255
31.1222 13.1253 -15.7166  255 255 255
-31.6222 9.95766 14.4127  255 255 255
51.4128 11.0851 -16.1397  255 255 255
-26.7663 10.2725 10.2771  255 255 255
-26.9901 10.4889 9.86813  255 255 255
-25.1183 11.9435 4.46395  255 255 255
25.4289 12.208 -13.4009  255 255 255
4.9118 12.7663 -10.1767  255 255 255
5.75844 12.5517 -9.85545  255 255 255
-27.4838 9.49852 10.6557  255 255 255
39.7809 8.95608 -9.67196  255 255 255
-34.3728 7.9738 15.8456  255 255 255
-21.8124 12.1888 -1.48864  255 255 255
-21.7859 12.1603 -1.40497  255 255 255
35.3777 13.2007 -22.1628  255 255 255
32.3278 10.3455 -13.2617  255 255 255
50.4817 9.57361 -16.3928  255 255 255
-59.4419 -17.0648 108.5  255 255 255
30.5801 10.8846 -15.7506  255 255 255
12.2248 11.4651 -12.6055  255 255 255
-27.8578 8.21644 10.2548  255 255 255
90.3746 -14.9871 52.4117  255 255 255
-4.71157 10.6971 -6.59286  255 255 255
-25.4002 9.35671 3.88112  255 255 255
33.7644 8.73464 -12.8154  255 255 255
-53.3602 -18.0843 106.045  255 255 255
-11.3248 10.1813 -4.59545  255 255 255
22.8447 9.67124 -13.8695  255 255 255
26.5386 8.81929 -13.7319  255 255 255
26.5863 8.73382 -13.5673  255 255 255
-28.0275 6.22421 12.845  255 255 255
32.2349 8.58285 -13.7607  255 255 255
18.3961 9.7449 -14.2168  255 255 255
-28.1719 -18.3044 97.0188  255 255 255
-27.0102 7.0915 8.73706  255 255 255
-20.0736 8.6685 0.493299  255 255 255
-20.1463 8.66337 0.416069  255 255 255
37.4808 6.98575 -11.8951  255 255 255
37.5836 6.81705 -11.3854  255 255 255
-64.6284 -19.2453 110.544  255 255 255
-59.5503 -19.0678 107.925  255 255 255
-34.1034 6.07432 13.048  255 255 255
-34.1037 6.07474 13.0472  255 255 255
-26.9749 6.62984 7.56825  255 255 255
29.8 6.77443 -14.1845  255 255 255
30.0669 7.60619 -14.4462  255 255 255
-68.5035 -19.7106 111.39  255 255 255
-27.8367 -17.3391 91.0303  255 255 255
-19.6972 7.88128 -0.199945  255 255 255
22.651 8.22484 -15.0107  255 255 255
-33.04 4.97676 12.9439  255 255 255
43.0783 5.73512 -13.4611  255 255 255
66.5094 -8.23956 27.385  255 255 255
9.11968 7.32567 -8.84893  255 255 255
-25.5676 6.00863 6.38344  255 255 255
-20.3655 6.70598 1.39234  255 255 255
-17.0929 -19.878 93.2133  255 255 255
44.0769 5.27241 -13.5613  255 255 255
-27.7558 4.82351 9.96975  255 255 255
-30.7534 4.27185 12.5002  255 255 255
-20.0731 6.42275 0.906237  255 255 255
16.2857 7.4791 -14.1745  255 255 255
-24.9054 5.39675 4.16378  255 255 255
85.7585 -18.7599 55.2902  255 255 255
-30.2397 2.70978 14.5105  255 255 255
-25.6403 5.35923 4.27546  255 255 255
-25.488 5.22364 4.56564  255 255 255
-23.1534 6.74541 -1.68555  255 255 255
-37.085 -21.018 99.8195  255 255 255
3.79766 6.47112 -11.326  255 255 255
-28.5636 2.86043 11.6683  255 255 255
-19.8544 4.71815 1.40015  255 255 255
-35.5955 2.3512 14.5468  255 255 255
-19.3115 5.47841 -1.46878  255 255 255
-7.1071 5.86399 -6.39377  255 255 255
-57.3405 -21.6971 106.812  255 255 255
-24.7273 3.39489 6.49964  255 255 255
-11.9038 5.07824 -3.04691  255 255 255
26.3732 4.41637 -12.9017  255 255 255
-32.7234 -21.7201 98.3191  255 255 255
-32.2132 2.1181 13.2748  255 255 255
29.496 4.42612 -14.6  255 255 255
29.4957 4.42512 -14.5986  255 255 255
50.3891 3.2796 -16.6466  255 255 255
-25.5501 3.439 5.84506  255 255 255
22.3503 5.6078 -16.9052  255 255 255
33.3458 3.47015 -12.9717  255 255 255
37.8929 2.7336 -11.2216  255 255 255
39.4028 2.54088 -11.3179  255 255 255
44.2736 2.63491 -13.2834  255 255 255
26.8542 4.03913 -13.6982  255 255 255
51.4706 5.44283 -23.8914  255 255 255
-35.2908 1.39416 14.5186  255 255 255
-35.1318 1.34919 14.7272  255 255 255
-32.5017 1.45689 13.5246  255 255 255
-31.5493 1.30459 13.5985  255 255 255
-27.2853 2.31377 8.36892  255 255 255
-25.903 2.37522 7.86734  255 255 255
-25.7948 2.26548 8.1831  255 255 255
-11.795 4.55141 -4.44572  255 255 255
-25.5244 2.48985 7.24393  255 255 255
-25.5584 2.51669 7.16391  255 255 255
-20.1743 3.88153 0.935098  255 255 255
38.3848 2.16604 -11.3739  255 255 255
-53.592 -22.66 105.753  255 255 255
-33.2912 -22.4491 98.6243  255 255 255
-33.316 -22.4744 98.5873  255 255 255
27.4191 3.61069 -13.626  255 255 255
47.0042 3.02518 -17.794  255 255 255
-25.0378 2.57472 5.70215  255 255 255
31.7513 2.77566 -12.5509  255 255 255
31.7359 2.79035 -12.5949  255 255 255
-34.7308 0.881028 14.5819  255 255 255
-36.6152 -22.6941 99.5575  255 255 255
45.2197 1.35066 -12.6721  255 255 255
44.9288 1.79369 -13.8327  255 255 255
41.4288 0.918617 -10.4414  255 255 255
41.2082 1.35652 -11.6082  255 255 255
-16.8853 4.387 -5.23771  255 255 255
27.462 2.73178 -13.0204  255 255 255
-22.6184 -22.9375 94.7961  255 255 255
-33.1512 0.795928 12.829  255 255 255
-1.28535 4.34146 -10.4869  255 255 255
2.17788 4.35722 -11.5876  255 255 255
31.9097 2.08189 -12.4521  255 255 255
70.4771 -13.9736 31.8074  255 255 255
-20.1439 2.62528 1.4558  255 255 255
43.8076 0.971714 -13.4639  255 255 255
46.7391 1.54295 -16.6996  255 255 255
47.0711 6.08069 -31.7055  255 255 255
-20.1235 1.66656 2.39937  255 255 255
-6.68723 2.81305 -5.74502  255 255 255
-0.672982 3.58104 -10.8993  255 255 255
1.94995 3.10836 -9.8854  255 255 255
-12.8656 3.72547 -7.90298  255 255 255
-5.65451 2.72404 -5.85408  255 255 255
29.0138 1.4624 -12.8345  255 255 255
65.6578 -13.7644 29.6782  255 255 255
64.9557 -12.0814 24.5252  255 255 255
-37.6715 -23.7068 99.0843  255 255 255
-27.5646 0.476436 8.279  255 255 255
-24.0691 0.670298 5.87194  255 255 255
-21.4565 1.05645 3.58879  255 255 255
-5.3715 2.07977 -5.83233  255 255 255
-5.28241 1.98962 -5.56711  255 255 255
6.47817 1.85779 -9.38301  255 255 255
37.0144 -0.256174 -11.0382  255 255 255
-36.9752 -24.4671 99.5758  255 255 255
-33.3421 -24.3362 98.224  255 255 255
-68.2854 -24.8881 110.494  255 255 255
-42.1014 -0.362657 12.9026  255 255 255
-17.571 1.2216 -0.998448  255 255 255
9.63282 1.76619 -11.0651  255 255 255
-35.5406 -1.22699 13.4115  255 255 255
-32.6945 0.731831 5.66736  255 255 255
-25.6721 -24.7231 95.9372  255 255 255
-29.1813 -1.22047 10.9431  255 255 255
-5.32838 1.37498 -5.76069  255 255 255
-73.7679 -25.2617 112.771  255 255 255
-24.8693 -0.675479 7.26134  255 255 255
-25.0128 -0.570194 7.03137  255 255 255
22.8819 0.612963 -13.5501  255 255 255
-26.997 -0.913074 7.64621  255 255 255
-26.0743 -0.733705 7.17177  255 255 255
30.0546 3.06866 -23.5605  255 255 255
-20.9652 -0.453922 3.43088  255 255 255
34.9851 -0.736283 -13.2963  255 255 255
16.9308 4.45139 -25.7085  255 255 255
26.0311 -0.244236 -12.6529  255 255 255
26.0128 -0.219349 -12.7265  255 255 255
-23.577 -0.868806 4.22104  255 255 255
-18.9719 0.0357462 -0.279693  255 255 255
55.5292 -5.28075 -5.02021  255 255 255
-25.4717 -1.11551 4.48275  255 255 255
-45.4324 -26.1167 102.56  255 255 255
-30.8413 0.040683 2.12762  255 255 255
-27.1972 -1.68526 6.94465  255 255 255
26.5849 -0.801767 -13.2073  255 255 255
22.4019 -0.558103 -13.7797  255 255 255
-19.5125 -0.348119 -1.7096  255 255 255
-28.773 -26.3192 96.5665  255 255 255
11.8849 0.837007 -16.7531  255 255 255
31.128 -1.29573 -15.1339  255 255 255
67.0453 -13.1221 18.4712  255 255 255
-5.60281 -0.571446 -6.45457  255 255 255
5.74448 -0.0444301 -12.6201  255 255 255
27.4108 -1.37292 -14.4713  255 255 255
-19.0016 -0.730546 -2.19337  255 255 255
-22.5141 -2.08116 2.1291  255 255 255
39.5211 -2.86294 -13.1743  255 255 255
28.5957 -1.74094 -14.8653  255 255 255
67.1114 -15.0257 22.3338  255 255 255
-44.9436 -27.1541 102.502  255 255 255
-44.7451 -27.3087 102.908  255 255 255
-25.7224 -3.52702 7.80596  255 255 255
30.8015 -2.67698 -12.8572  255 255 255
-34.2621 -27.4369 98.3471  255 255 255
52.7413 -6.45362 -7.08823  255 255 255
-36.6469 -4.13919 11.8923  255 255 255
-26.1218 -4.48974 9.34072  255 255 255
30.0347 -2.55693 -15.0243  255 255 255
29.9836 -2.45857 -15.288  255 255 255
55.5707 -6.48686 -8.46694  255 255 255
26.8462 -2.92817 -13.8296  255 255 255
33.8566 -3.23672 -14.655  255 255 255
40.7564 -4.13211 -13.5413  255 255 255
44.5791 -2.99334 -18.7127  255 255 255
-41.345 -1.98297 4.5316  255 255 255
27.9424 -3.02321 -14.6972  255 255 255
-7.92735 11.4071 -58.9973  255 255 255
-40.1333 -4.75686 11.3548  255 255 255
56.2612 -7.64812 -7.17781  255 255 255
-25.1073 -4.1785 3.5044  255 255 255
-22.0667 -3.47901 -0.151586  255 255 255
-30.5869 -5.814 10.7302  255 255 255
-42.9086 -29.0522 101.298  255 255 255
-34.1741 -28.9787 98.1995  255 255 255
31.4337 -4.64787 -14.5594  255 255 255
33.8519 -4.85927 -14.5389  255 255 255
42.9073 -5.56303 -14.5784  255 255 255
-38.1547 -6.17612 11.4674  255 255 255
-22.9206 -3.42515 -2.8474  255 255 255
-9.92058 -2.90058 -10.451  255 255 255
-69.8212 -29.7611 110.683  255 255 255
-31.3436 -7.28279 10.5583  255 255 255
29.3412 -5.56431 -15.1903  255 255 255
-35.8523 -7.68311 12.4099  255 255 255
-25.0239 -3.14294 -6.97414  255 255 255
-71.8761 -30.6518 111.35  255 255 255
-69.9664 -31.7173 114.084  255 255 255
-59.2051 -30.6312 106.945  255 255 255
39.2303 -7.44556 -12.834  255 255 255
30.2744 -6.16022 -15.5182  255 255 255
40.4518 -7.26537 -14.148  255 255 255
39.9913 -7.85331 -13.727  255 255 255
-29.2762 -7.75447 7.00918  255 255 255
-32.7669 -30.7519 96.0509  255 255 255
25.7117 -6.92798 -15.1617  255 255 255
-11.8934 11.2994 -73.5587  255 255 255
-46.5526 -31.8061 102.088  255 255 255
-42.0492 -31.7697 100.925  255 255 255
-16.0932 -31.8752 92.0126  255 255 255
-22.349 -8.5505 2.64962  255 255 255
18.6188 -6.0871 -19.5866  255 255 255
-21.5962 -8.84943 2.55124  255 255 255
30.3289 -8.40443 -15.7949  255 255 255
35.6682 -9.04261 -14.8744  255 255 255
35.8877 -9.54382 -13.3562  255 255 255
11.0273 -6.80267 -16.6772  255 255 255
-68.2166 -34.0849 113.175  255 255 255
-36.6711 -8.53581 4.34365  255 255 255
-32.3844 -10.4506 9.79757  255 255 255
-35.0963 -7.57214 0.417475  255 255 255
-31.1045 -10.8863 10.9705  255 255 255
-18.7809 -33.0572 93.1766  255 255 255
37.7516 -10.5459 -13.0023  255 255 255
37.5927 -10.3839 -13.4122  255 255 255
-68.6667 -33.3841 109.741  255 255 255
57.415 -12.5237 -11.5916  255 255 255
-29.1052 -10.4892 6.46579  255 255 255
-28.984 -10.5704 6.65492  255 255 255
-25.2723 -9.95198 3.12764  255 255 255
-29.8771 -11.3787 9.14275  255 255 255
-29.7243 -11.3255 9.48939  255 255 255
43.1953 -10.7994 -15.9041  255 255 255
55.18 -12.4788 -12.5269  255 255 255
-37.9366 -11.2085 10.3057  255 255 255
38.7602 -10.7391 -15.1222  255 255 255
8.20355 -8.61486 -15.9712  255 255 255
-22.7729 -11.0898 1.46461  255 255 255
32.4516 -11.9988 -13.0392  255 255 255
-27.9707 -34.2101 94.1237  255 255 255
33.1853 -11.9813 -14.7229  255 255 255
54.951 -13.9391 -13.0245  255 255 255
-71.2553 -35.1661 110.623  255 255 255
43.7541 -11.9321 -18.8493  255 255 255
43.7617 -11.9024 -18.9038  255 255 255
-39.299 -12.7488 9.5624  255 255 255
6.50429 -9.15557 -21.5136  255 255 255
31.643 -12.6602 -15.4072  255 255 255
-36.6021 -34.9891 96.2015  255 255 255
43.6903 -13.7802 -19.0424  255 255 255
-22.5268 -13.2034 2.19842  255 255 255
46.6264 -12.77 -21.9075  255 255 255
-44.7646 -36.4535 101.68  255 255 255
50.6635 -14.5595 -17.594  255 255 255
17.1055 -10.7506 -23.3578  255 255 255
30.2412 -13.8856 -15.9779  255 255 255
-21.6065 -13.3551 -1.84498  255 255 255
-19.6233 -14.946 3.13296  255 255 255
-5.71127 -13.1865 -7.76818  255 255 255
27.9485 -13.2645 -16.8455  255 255 255
35.5266 -14.4812 -15.7277  255 255 255
-34.053 -35.1132 90.5403  255 255 255
-26.3408 -15.1658 4.71134  255 255 255
-64.6574 -37.9129 109.18  255 255 255
-41.793 -12.7462 0.320955  255 255 255
-37.4043 -16.3899 12.2518  255 255 255
50.6656 -15.6576 -17.5684  255 255 255
42.7229 -15.482 -15.4602  255 255 255
43.218 -15.6631 -15.6395  255 255 255
-29.2287 -15.5567 6.05097  255 255 255
44.2486 -15.3641 -19.1087  255 255 255
45.4869 -14.7901 -20.5346  255 255 255
-29.5784 -17.3639 9.58386  255 255 255
25.4077 -15.4309 -16.0567  255 255 255
25.2302 -15.1518 -16.6255  255 255 255
-50.4454 -38.8015 103.207  255 255 255
-18.6398 -14.329 -8.06317  255 255 255
41.9312 -17.0059 -15.2775  255 255 255
44.4611 -16.6898 -18.6164  255 255 255
0.129169 -14.1685 -16.0003  255 255 255
26.2518 -16.1815 -15.1797  255 255 255
-30.1988 -17.8707 8.02165  255 255 255
-22.5229 -16.7332 0.0812111  255 255 255
4.98273 -15.032 -15.4483  255 255 255
-25.3397 -17.357 2.6869  255 255 255
44.0798 -17.2305 -19.1608  255 255 255
44.6867 -17.1143 -19.4866  255 255 255
-20.4414 -16.5896 -2.55307  255 255 255
17.0362 -15.3667 -19.9241  255 255 255
-37.6113 -18.2933 9.11048  255 255 255
-36.7388 -18.9822 11.0089  255 255 255
-21.8955 -18.1212 1.92179  255 255 255
15.2832 -14.4766 -22.2962  255 255 255
25.4917 -17.0391 -15.8115  255 255 255
-59.8433 -40.0694 106.365  255 255 255
39.291 -16.2144 -24.2925  255 255 255
40.6148 -18.9008 -14.8372  255 255 255
-39.9975 -19.1622 10.0564  255 255 255
-40.0631 -19.098 9.95816  255 255 255
-40.7432 -16.5169 -0.0622164  255 255 255
38.5669 -19.3162 -14.685  255 255 255
-26.7561 -19.2478 3.33167  255 255 255
-28.09 -19.4076 4.74095  255 255 255
49.6597 -16.1642 -24.7392  255 255 255
-21.8477 -18.9944 -0.0957994  255 255 255
-22.2266 -18.6799 -0.943845  255 255 255
18.0914 -17.3737 -19.5219  255 255 255
31.0682 -19.0916 -15.7429  255 255 255
-20.5823 -19.3168 -0.73939  255 255 255
22.9523 -19.0309 -15.8481  255 255 255
-25.9071 -20.2138 2.71992  255 255 255
-24.2846 -36.8387 76.6644  255 255 255
22.1124 -19.2536 -16.6291  255 255 255
31.7045 -20.4207 -14.921  255 255 255
-22.4087 -20.1773 0.428169  255 255 255
55.4152 -22.9633 -11.6316  255 255 255
30.9534 -20.5074 -15.7433  255 255 255
-26.3523 -20.965 2.82352  255 255 255
41.4753 -21.8833 -14.7643  255 255 255
-25.3284 -21.5557 2.64374  255 255 255
-27.55 -22.353 5.01828  255 255 255
-37.3597 -21.0057 2.32668  255 255 255
9.23003 -21.8016 -9.76909  255 255 255
-40.0048 -23.1326 9.8631  255 255 255
-39.9091 -23.2115 10.0466  255 255 255
-31.8859 -23.6033 9.48964  255 255 255
23.2181 -21.6715 -16.0932  255 255 255
-23.4863 -22.605 1.36243  255 255 255
-22.4994 -22.4991 0.0287843  255 255 255
27.279 -22.3515 -15.8719  255 255 255
32.9623 -22.622 -15.7567  255 255 255
5.46218 -23.7416 -2.7461  255 255 255
-20.1574 -22.7304 -1.87588  255 255 255
-29.8287 -23.8678 5.78809  255 255 255
-29.7985 -23.8831 5.82321  255 255 255
16.5348 -22.767 -13.898  255 255 255
-19.7386 -23.1357 -2.54223  255 255 255
16.3511 -22.8521 -15.6569  255 255 255
38.9192 -24.7225 -14.1679  255 255 255
42.1883 -24.871 -14.6249  255 255 255
-21.1056 -45.1151 92.8241  255 255 255
-34.3575 -26.0225 10.6213  255 255 255
-20.1668 -24.1676 -2.62418  255 255 255
21.5917 -23.8384 -16.8813  255 255 255
5.20063 -25.2032 -6.03788  255 255 255
37.6163 -25.4647 -14.6627  255 255 255
-22.6931 -24.5627 -1.62935  255 255 255
-22.7605 -24.4492 -1.8182  255 255 255
10.8134 -25.398 -7.82844  255 255 255
32.2819 -25.1141 -15.5291  255 255 255
42.2487 -25.984 -15.1787  255 255 255
-26.9778 -45.7211 93.9547  255 255 255
-39.5181 -26.3096 9.83688  255 255 255
-26.6427 -25.4663 2.4881  255 255 255
-35.4103 -46.1149 97.2324  255 255 255
-26.9024 -46.3793 95.261  255 255 255
-31.5633 -26.964 8.95658  255 255 255
12.456 -26.0895 -8.28628  255 255 255
15.4779 -25.9184 -10.524  255 255 255
-26.2371 -25.9132 2.14584  255 255 255
-26.3177 -25.8494 1.97606  255 255 255
-19.22 -25.1944 -3.45897  255 255 255
16.596 -26.4097 -9.57594  255 255 255
-25.1562 -23.809 -8.55755  255 255 255
0.478362 -26.7785 -3.02118  255 255 255
0.203772 -26.5069 -3.79865  255 255 255
30.8316 -26.0936 -15.9538  255 255 255
-1.77729 -27.3465 -1.51664  255 255 255
2.06691 -25.924 -9.12392  255 255 255
16.038 -27.2961 -9.1574  255 255 255
0.403284 -28.2532 -0.630332  255 255 255
-11.7218 -27.6362 0.194073  255 255 255
1.58131 -27.4142 -4.51614  255 255 255
-20.7555 -26.944 -2.64369  255 255 255
-28.1079 -28.1097 4.95753  255 255 255
1.16895 -28.4591 -2.16021  255 255 255
0.867002 -28.1972 -2.88384  255 255 255
26.0509 -27.2927 -16.0418  255 255 255
-11.8302 -28.3589 0.107405  255 255 255
2.14725 -27.708 -6.56214  255 255 255
12.4211 -28.2809 -9.41938  255 255 255
39.4693 -28.6374 -14.3795  255 255 255
39.5926 -28.6908 -14.0454  255 255 255
33.2636 -27.8098 -16.3043  255 255 255
-31.9667 -29.0962 8.76543  255 255 255
-2.11537 -28.9982 -2.58615  255 255 255
26.0863 -28.37 -15.9448  255 255 255
-30.0616 -30.2176 8.65832  255 255 255
35.2741 -28.3238 -18.958  255 255 255
44.3034 -28.9345 -20.2814  255 255 255
50.2739 -29.7863 -18.6148  255 255 255
29.6621 -28.4041 -20.3543  255 255 255
-0.0967933 -29.7925 -2.81312  255 255 255
41.2673 -30.1399 -15.6414  255 255 255
-10.7768 -30.5156 0.46239  255 255 255
32.5032 -29.617 -16.3552  255 255 255
28.7007 -29.5424 -17.0854  255 255 255
-32.2451 -31.4892 9.20162  255 255 255
-18.4745 -49.8231 90.2664  255 255 255
-29.2276 -31.8479 8.69586  255 255 255
26.0475 -30.0616 -16.0323  255 255 255
30.779 -30.4377 -16.3771  255 255 255
21.487 -28.9129 -21.7082  255 255 255
-18.6941 -29.9124 -5.45936  255 255 255
-35.5554 -32.3177 10.4439  255 255 255
4.50699 -31.4283 -6.12866  255 255 255
-27.6399 -31.6456 4.33235  255 255 255
-27.4896 -31.7232 4.63049  255 255 255
-29.897 -32.7483 8.60318  255 255 255
-26.7291 -31.5761 2.22167  255 255 255
-22.7001 -31.0015 -1.96941  255 255 255
-22.2031 -31.4889 -0.797258  255 255 255
1.03412 -31.8184 -4.31348  255 255 255
24.2466 -30.8183 -17.6047  255 255 255
-35.7226 -33.1147 10.8504  255 255 255
-32.8334 -30.3402 -2.24789  255 255 255
-26.0914 -31.9553 2.0893  255 255 255
-27.2162 -32.6706 5.4191  255 255 255
-27.3301 -32.5645 5.0228  255 255 255
29.7633 -31.4234 -17.6234  255 255 255
-39.717 -51.6292 98.6695  255 255 255
-27.0563 -32.4592 2.93041  255 255 255
1.5213 -32.8761 -3.81606  255 255 255
-25.7783 -32.6292 1.92471  255 255 255
-22.2703 -31.4388 -5.09354  255 255 255
-21.1949 -32.3959 -2.87463  255 255 255
8.29557 -32.8238 -8.20718  255 255 255
-14.3129 -34.384 3.2585  255 255 255
-20.6311 -33.029 -2.67612  255 255 255
-21.0237 -33.8305 -1.94651  255 255 255
8.2733 -34.5484 -7.70164  255 255 255
33.0308 -34.1315 -16.7644  255 255 255
37.4067 -34.9717 -14.4612  255 255 255
-11.1729 -35.8893 1.79749  255 255 255
78.3263 -52.0297 53.0345  255 255 255
-20.3852 -34.6344 -3.24398  255 255 255
44.271 -35.0988 -20.4103  255 255 255
-20.9609 -34.6856 -3.26026  255 255 255
37.6314 -36.2147 -15.4056  255 255 255
16.292 -35.6799 -12.2673  255 255 255
36.2128 -36.4978 -15.203  255 255 255
-22.4876 -35.7179 -1.86748  255 255 255
17.6468 -35.1161 -16.0757  255 255 255
27.1084 -35.9233 -16.6154  255 255 255
30.6339 -36.12 -16.4904  255 255 255
-5.51921 -36.3672 -4.26993  255 255 255
7.40829 -36.4085 -8.71782  255 255 255
-11.0238 -37.3376 1.14936  255 255 255
6.09582 -36.9387 -7.83468  255 255 255
-23.8255 -36.7623 0.498869  255 255 255
16.1732 -38.0408 -6.41474  255 255 255
44.3478 -36.1232 -22.4129  255 255 255
44.7137 -36.7913 -20.7863  255 255 255
-4.42567 -37.0848 -4.87922  255 255 255
29.6353 -36.4117 -17.7225  255 255 255
29.7603 -36.6831 -17.1279  255 255 255
-31.9179 -55.591 95.5209  255 255 255
-5.81712 -37.0364 -4.51574  255 255 255
2.87005 -37.032 -5.92404  255 255 255
25.8279 -36.5559 -16.769  255 255 255
26.35 -36.7298 -17.1532  255 255 255
-33.0025 -38.1129 8.02747  255 255 255
12.256 -36.6854 -12.9688  255 255 255
1.30947 -38.0257 -4.91103  255 255 255
30.704 -37.6125 -16.2404  255 255 255
44.71 -37.583 -20.9449  255 255 255
-36.2345 -56.2933 97.069  255 255 255
-20.3109 -37.0016 -5.80218  255 255 255
-18.4377 -37.5355 -3.95212  255 255 255
22.5911 -37.3508 -17.329  255 255 255
-22.4172 -37.8066 -1.67643  255 255 255
28.5976 -37.9722 -17.2103  255 255 255
29.546 -38.0151 -17.3148  255 255 255
-27.1807 -39.2552 2.95344  255 255 255
-32.7207 -40.5804 10.6846  255 255 255
15.3141 -38.9542 -11.3878  255 255 255
-73.0914 -57.8752 110.68  255 255 255
-27.3936 -54.2594 78.5905  255 255 255
30.6575 -39.6427 -16.2836  255 255 255
-24.5227 -39.8257 0.246858  255 255 255
-11.3657 -40.7473 1.16785  255 255 255
-10.6831 -40.8936 1.03204  255 255 255
19.8462 -38.577 -15.4673  255 255 255
25.9036 -39.8081 -16.258  255 255 255
13.4115 -40.2663 -11.4464  255 255 255
18.8941 -40.0005 -13.8878  255 255 255
20.4492 -39.4796 -18.6653  255 255 255
26.1747 -40.0816 -17.8207  255 255 255
32.1051 -41.293 -17.0288  255 255 255
25.8345 -41.0516 -16.7537  255 255 255
94.1935 -58.7193 54.0873  255 255 255
11.9519 -41.1428 -13.525  255 255 255
-15.8524 -42.4607 1.03006  255 255 255
29.5536 -41.7943 -17.6805  255 255 255
29.4544 -41.6872 -18.0034  255 255 255
10.5755 -41.6943 -12.6118  255 255 255
-23.467 -42.3136 1.2494  255 255 255
-26.215 -42.6465 1.65603  255 255 255
-18.6611 -42.1087 -4.67758  255 255 255
51.9511 -45.3177 -10.2894  255 255 255
11.4932 -42.4892 -13.7721  255 255 255
-5.62196 -42.0747 -11.3264  255 255 255
0.789362 -43.4699 -5.68257  255 255 255
-31.0695 -44.6798 9.11855  255 255 255
-36.2523 -44.3449 9.16075  255 255 255
-25.9069 -43.5479 0.29152  255 255 255
93.9592 -62.3541 64.7552  255 255 255
0.44083 -44.2717 -4.56233  255 255 255
-25.9815 -43.9652 1.10597  255 255 255
-25.8259 -44.0671 1.30181  255 255 255
29.7838 -43.9095 -15.8569  255 255 255
28.6723 -43.5947 -17.458  255 255 255
-18.037 -44.8675 1.95799  255 255 255
31.0075 -44.0157 -16.491  255 255 255
-39.6025 -45.6291 10.7817  255 255 255
-34.9424 -47.0965 16.5764  255 255 255
-21.0046 -44.8547 1.08187  255 255 255
43.2146 -45.2918 -15.7542  255 255 255
19.7396 -44.9578 -11.9007  255 255 255
31.4285 -45.1238 -14.8756  255 255 255
31.3655 -45.0589 -15.0641  255 255 255
32.9746 -45.1134 -15.395  255 255 255
44.9478 -43.8758 -23.1987  255 255 255
44.6906 -45.0844 -19.441  255 255 255
48.5418 -47.0715 -11.8947  255 255 255
30.9349 -45.5993 -14.9693  255 255 255
43.2306 -44.664 -23.4234  255 255 255
28.5603 -45.6779 -15.6717  255 255 255
-35.8999 -61.6435 90.1375  255 255 255
-22.9377 -46.3857 2.2299  255 255 255
-26.9186 -46.6916 4.46271  255 255 255
-36.2285 -47.8904 11.5319  255 255 255
-34.6327 -47.3119 8.47629  255 255 255
-28.83 -47.8916 7.42825  255 255 255
2.32693 -47.4597 -5.04965  255 255 255
-27.3966 -47.9057 5.84718  255 255 255
19.2995 -47.3802 -12.0186  255 255 255
46.9665 -47.5924 -19.6498  255 255 255
-24.5842 -47.8727 2.56285  255 255 255
-24.6829 -47.8573 2.40154  255 255 255
33.9524 -49.074 -8.76294  255 255 255
44.8918 -47.6827 -19.0391  255 255 255
-12.9055 -48.1831 -0.301338  255 255 255
-25.9749 -48.3582 4.13929  255 255 255
-13.625 -48.4318 0.94667  255 255 255
-9.88279 -48.137 -2.2203  255 255 255
-23.6677 -46.7965 -3.50672  255 255 255
41.7065 -50.482 -6.24541  255 255 255
41.2674 -48.5613 -15.6279  255 255 255
9.17867 -48.2106 -9.70525  255 255 255
-34.5122 -64.7259 96.0185  255 255 255
-42.532 -48.7345 9.43676  255 255 255
14.3637 -48.3918 -10.2085  255 255 255
10.3559 -48.1482 -10.4655  255 255 255
-22.3251 -64.8898 91.7526  255 255 255
-15.7667 -48.9855 -0.286595  255 255 255
12.6786 -48.5229 -11.481  255 255 255
-19.4939 -46.3981 -13.5386  255 255 255
-28.2609 -50.6867 10.2211  255 255 255
-28.2751 -50.6778 10.1827  255 255 255
26.7294 -48.8538 -16.3394  255 255 255
-30.1804 -50.221 7.74297  255 255 255
35.1214 -50.9023 -8.44663  255 255 255
-3.40889 -49.4027 -6.41293  255 255 255
36.4335 -50.6225 -12.3656  255 255 255
-26.7438 -50.0119 3.08482  255 255 255
17.2568 -49.8552 -10.4255  255 255 255
17.1815 -49.7756 -10.7643  255 255 255
40.7518 -50.084 -16.4216  255 255 255
-20.0884 -50.1003 -0.191176  255 255 255
-7.89886 -49.8351 -4.70087  255 255 255
22.7096 -49.5497 -15.9788  255 255 255
-25.6268 -50.1461 0.927056  255 255 255
-2.80044 -49.9007 -6.19393  255 255 255
11.5355 -49.8989 -11.2099  255 255 255
12.943 -49.9356 -12.5279  255 255 255
13.0629 -50.0766 -12.1387  255 255 255
11.9631 -49.9059 -12.0079  255 255 255
25.0818 -50.021 -16.1895  255 255 255
-23.6248 -50.7887 0.224771  255 255 255
-7.39147 -50.7236 -5.35447  255 255 255
-2.60199 -50.6151 -7.37007  255 255 255
7.38474 -50.6498 -10.5546  255 255 255
5.0162 -50.6911 -9.86645  255 255 255
13.2805 -50.6632 -12.7088  255 255 255
24.757 -50.4571 -16.8019  255 255 255
-10.6467 -51.1521 -4.66498  255 255 255
40.273 -51.4415 -16.9121  255 255 255
-19.1904 -67.2704 90.6418  255 255 255
-27.1272 -51.1379 0.368497  255 255 255
-9.22105 -51.163 -5.31011  255 255 255
-7.63344 -51.3538 -4.81217  255 255 255
-7.20857 -51.3118 -5.52756  255 255 255
5.31446 -51.3167 -9.82088  255 255 255
12.6431 -51.0869 -12.7933  255 255 255
13.5332 -51.0926 -13.0242  255 255 255
24.785 -51.1468 -16.4979  255 255 255
27.7913 -50.8711 -18.1115  255 255 255
-3.90885 -51.6954 -6.84075  255 255 255
-3.95162 -51.6943 -6.9516  255 255 255
-30.8311 -52.8876 6.49944  255 255 255
-26.6033 -52.3224 1.00467  255 255 255
-25.8369 -52.5089 0.97164  255 255 255
-21.8445 -52.5402 -0.420094  255 255 255
23.4702 -52.193 -16.9078  255 255 255
26.9874 -52.1745 -18.0911  255 255 255
65.7423 -63.0322 37.3236  255 255 255
-12.7278 -52.8974 -4.19482  255 255 255
-12.7278 -52.8975 -4.19477  255 255 255
5.07687 -52.4735 -11.0016  255 255 255
27.7381 -52.8791 -18.1793  255 255 255
-22.6461 -69.0153 91.181  255 255 255
79.7358 -69.6556 61.6303  255 255 255
-31.4229 -55.476 7.36288  255 255 255
-24.2851 -51.8827 -14.9835  255 255 255
-24.3708 -51.8256 -15.2703  255 255 255
39.8641 -54.4121 -19.5636  255 255 255
12.8919 -54.6768 -11.933  255 255 255
33.2227 -54.5508 -18.708  255 255 255
36.9489 -55.716 -16.5557  255 255 255
-24.7322 -55.7917 -0.182508  255 255 255
-21.3815 -68.3222 74.7107  255 255 255
-26.9529 -55.7347 1.84272  255 255 255
-40.5796 -56.6802 8.48031  255 255 255
-27.9447 -56.4415 2.96726  255 255 255
-27.9317 -56.4442 2.9743  255 255 255
24.35 -55.8457 -17.6719  255 255 255
-65.7129 -71.6402 104.753  255 255 255
41.6127 -56.9137 -17.7282  255 255 255
34.385 -56.5866 -18.1658  255 255 255
-42.3417 -57.9088 7.88625  255 255 255
19.066 -57.5368 -16.8683  255 255 255
103.649 -68.2707 23.2454  255 255 255
-27.2477 -58.2262 0.775462  255 255 255
-27.1991 -58.2775 0.907628  255 255 255
105.561 -73.3342 52.4472  255 255 255
-40.4878 -58.7713 4.86122  255 255 255
-23.2101 -58.765 -1.91703  255 255 255
-24.8042 -56.6388 -14.4205  255 255 255
-40.7528 -60.3457 6.9582  255 255 255
-27.4832 -60.1883 1.79737  255 255 255
42.2454 -58.9207 -27.0479  255 255 255
108.351 -82.2619 85.5098  255 255 255
-30.641 -61.3143 4.13133  255 255 255
-24.7047 -60.7042 -1.72724  255 255 255
42.8473 -60.8497 -21.6135  255 255 255
37.9814 -61.4305 -17.4066  255 255 255
38.114 -61.5548 -16.9672  255 255 255
38.1315 -61.575 -16.867  255 255 255
-22.6665 -62.0374 -0.461084  255 255 255
96.5713 -87.3641 113.416  255 255 255
44.5961 -63.0354 -19.9982  255 255 255
-27.6492 -63.1296 1.57356  255 255 255
30.0629 -63.2719 -17.8098  255 255 255
-33.4815 -64.2966 5.73763  255 255 255
24.94 -62.9524 -21.3805  255 255 255
65.0849 -72.8981 36.1438  255 255 255
27.0032 -63.3896 -21.5448  255 255 255
30.0511 -64.1929 -18.1226  255 255 255
-31.9532 -65.5253 3.69038  255 255 255
-37.3254 -65.8949 4.87368  255 255 255
-38.5207 -65.9716 5.50138  255 255 255
-25.039 -65.658 -2.37872  255 255 255
97.0684 -79.2303 48.7561  255 255 255
29.7836 -67.2966 -19.0772  255 255 255
38.3065 -68.0489 -18.1097  255 255 255
-27.0066 -76.5529 64.6019  255 255 255
-23.9704 -67.8374 -3.21897  255 255 255
28.0496 -67.4136 -21.2792  255 255 255
36.1728 -68.0894 -18.8552  255 255 255
42.0871 -68.5269 -25.9885  255 255 255
-24.6699 -69.4679 -1.47435  255 255 255
-17.1068 -82.3074 88.4833  255 255 255
-73.9587 -81.9159 102.543  255 255 255
37.0991 -69.4511 -19.8207  255 255 255
-23.9533 -70.1722 -1.39698  255 255 255
40.4581 -70.1767 -20.5229  255 255 255
-23.9912 -83.1398 90.6237  255 255 255
67.2696 -79.6948 41.1678  255 255 255
-31.457 -72.0244 3.34775  255 255 255
-72.9127 -83.6431 103.292  255 255 255
40.4916 -72.1239 -18.2948  255 255 255
-28.7263 -72.5289 1.72809  255 255 255
50.3719 -73.0961 -16.7407  255 255 255
-69.3977 -84.5651 102.994  255 255 255
-71.289 -84.7672 102.615  255 255 255
-27.47 -73.498 -1.55329  255 255 255
-63.7336 -85.9348 103.47  255 255 255
-35.3662 -74.7628 7.35773  255 255 255
-33.0679 -74.6079 5.49364  255 255 255
-32.9177 -75.0871 7.34457  255 255 255
-26.109 -74.3229 -0.642262  255 255 255
-38.2914 -74.0483 0.077364  255 255 255
38.9481 -74.57 -17.9555  255 255 255
-28.1961 -74.7058 -1.23169  255 255 255
-27.0388 -74.7742 -1.13961  255 255 255
-33.297 -75.67 6.35638  255 255 255
64.6217 -82.8917 34.5546  255 255 255
-28.5153 -87.8094 92.5119  255 255 255
-26.9522 -87.8502 93.0188  255 255 255
-20.968 -87.7153 89.1013  255 255 255
-28.3241 -76.4567 -0.619124  255 255 255
91.6272 -88.7626 59.5429  255 255 255
85.6386 -75.5823 -38.9933  255 255 255
91.1458 -77.4316 -29.1993  255 255 255
-40.992 -76.7062 2.80029  255 255 255
-24.1152 -77.1767 -1.72793  255 255 255
-26.953 -77.4137 -1.2051  255 255 255
-27.4291 -78.4288 4.26962  255 255 255
24.7979 -77.1825 -18.9275  255 255 255
-38.6302 -78.2502 5.95896  255 255 255
-25.182 -78.4549 -2.67251  255 255 255
-23.8503 -78.9569 0.65109  255 255 255
24.8422 -78.5272 -18.9615  255 255 255
-36.4893 -79.4621 5.75013  255 255 255
-27.6897 -79.357 -1.25153  255 255 255
-23.1927 -79.6053 -5.43663  255 255 255
-26.6659 -79.9461 -1.62206  255 255 255
-17.7376 -91.108 88.6442  255 255 255
-28.2004 -80.4707 0.069031  255 255 255
-32.8945 -81.0554 5.64496  255 255 255
-40.8846 -81.6748 7.70576  255 255 255
-26.9829 -80.0466 -6.43124  255 255 255
-23.6397 -81.4322 0.934197  255 255 255
32.6777 -80.9388 -19.5207  255 255 255
88.2721 -82.1363 -27.9909  255 255 255
88.0081 -91.5296 53.9857  255 255 255
-24.7196 -82.0899 -1.60981  255 255 255
-27.3059 -82.3408 -1.54524  255 255 255
-33.4588 -83.1314 4.89585  255 255 255
37.132 -82.983 -18.5544  255 255 255
93.6876 -98.9549 90.858  255 255 255
-25.6635 -82.9873 -2.5676  255 255 255
80.8861 -94.4775 64.6405  255 255 255
33.2308 -83.6188 -21.1264  255 255 255
-25.3418 -84.1262 -1.79972  255 255 255
85.8226 -94.0745 56.0547  255 255 255
-31.8454 -85.3284 6.67235  255 255 255
-28.6991 -84.5285 -1.08819  255 255 255
-42.0022 -84.8306 5.22409  255 255 255
39.5377 -84.9258 -19.7375  255 255 255
96.8379 -101.27 96.3212  255 255 255
27.6701 -84.968 -19.4098  255 255 255
51.4784 -85.931 -17.5496  255 255 255
-40.4112 -85.8422 5.37406  255 255 255
-40.6232 -85.7655 4.90228  255 255 255
-25.5159 -85.4307 -2.18302  255 255 255
40.1377 -85.4567 -20.6585  255 255 255
-27.5789 -85.705 -2.51118  255 255 255
-27.8887 -85.658 -3.08428  255 255 255
-31.61 -87.9227 15.6074  255 255 255
-25.0765 -86.1565 -2.60948  255 255 255
32.9107 -85.7064 -23.2741  255 255 255
43.4567 -86.0871 -27.4716  255 255 255
43.3112 -85.9683 -28.4171  255 255 255
31.7096 -86.8446 -18.3238  255 255 255
-37.0487 -87.6428 7.09535  255 255 255
-32.2039 -87.6208 5.37886  255 255 255
28.6331 -86.6722 -20.2679  255 255 255
39.7381 -87.4849 -19.1861  255 255 255
28.7595 -86.9979 -21.1337  255 255 255
38.8298 -87.4415 -19.338  255 255 255
32.0582 -87.412 -20.0372  255 255 255
44.2028 -87.0116 -26.3654  255 255 255
-37.025 -88.5928 6.86809  255 255 255
-32.4187 -88.6367 6.20652  255 255 255
45.0965 -88.4133 -20.2465  255 255 255
-43.2587 -88.4507 6.0859  255 255 255
-27.619 -88.8662 4.68356  255 255 255
35.0644 -88.3303 -18.272  255 255 255
38.7053 -88.6003 -18.328  255 255 255
40.6815 -88.4271 -19.826  255 255 255
41.4578 -88.4743 -20.0719  255 255 255
28.7815 -88.1791 -20.2482  255 255 255
29.854 -88.217 -19.6632  255 255 255
31.8964 -88.2864 -19.9107  255 255 255
-66.0472 -97.8156 99.0869  255 255 255
-42.534 -88.8157 2.78189  255 255 255
-34.0555 -89.7824 5.54235  255 255 255
-43.068 -90.0215 7.16109  255 255 255
-37.8549 -90.2727 9.01707  255 255 255
-38.0021 -90.1829 8.6643  255 255 255
-30.9518 -90.2027 6.62168  255 255 255
-38.7243 -90.7183 12.3429  255 255 255
-29.6638 -89.9395 2.45596  255 255 255
-28.3344 -89.9487 2.07895  255 255 255
51.036 -90.3399 -16.6813  255 255 255
31.6262 -89.755 -18.6675  255 255 255
33.6617 -89.8989 -17.4337  255 255 255
-42.4508 -90.0203 3.84926  255 255 255
-29.8383 -90.5634 2.72511  255 255 255
49.3996 -90.7188 -18.706  255 255 255
53.5355 -90.8662 -17.7332  255 255 255
-28.8264 -92.8582 14.713  255 255 255
28.6029 -91.1036 -19.1023  255 255 255
-28.1326 -91.648 -1.34221  255 255 255
28.8464 -90.9151 -23.9555  255 255 255
28.4339 -91.5108 -20.4626  255 255 255
44.9585 -92.3455 -18.7213  255 255 255
44.9225 -92.3209 -18.8032  255 255 255
45.5743 -92.1449 -20.7934  255 255 255
21.6466 -92.2776 -21.4384  255 255 255
-38.5056 -93.6397 6.09437  255 255 255
-33.6721 -94.1616 5.17297  255 255 255
-33.316 -94.3012 5.79552  255 255 255
-37.4787 -94.4461 6.61823  255 255 255
-28.8525 -94.9629 7.61171  255 255 255
21.5898 -93.2283 -22.078  255 255 255
-25.9174 -102.578 90.3165  255 255 255
-30.6953 -102.654 91.1647  255 255 255
32.0374 -93.9335 -19.7542  255 255 255
-31.3676 -102.593 88.9865  255 255 255
-28.5056 -94.5467 -0.574972  255 255 255
27.6016 -94.3026 -19.6694  255 255 255
26.9601 -93.9425 -21.8385  255 255 255
-28.6879 -94.9477 0.762828  255 255 255
22.5087 -94.1225 -22.1069  255 255 255
-62.6181 -104.106 104.223  255 255 255
-27.9629 -103.654 89.3181  255 255 255
-35.1551 -96.0289 3.38751  255 255 255
49.4038 -96.2669 -21.4374  255 255 255
32.9608 -96.1717 -21.4055  255 255 255
31.6299 -95.5207 -28.8558  255 255 255
24.167 -96.7415 -20.5841  255 255 255
48.821 -98.3452 -19.3059  255 255 255
-23.7879 -105.65 86.8925  255 255 255
-30.4848 -106.279 91.6931  255 255 255
81.2136 -106.614 65.5637  255 255 255
-24.5506 -105.982 86.7728  255 255 255
26.943 -98.1998 -21.8267  255 255 255
26.6685 -98.035 -22.9825  255 255 255
-28.6926 -98.825 -2.48994  255 255 255
26.9234 -98.1312 -26.2217  255 255 255
29.8778 -99.3775 -14.5561  255 255 255
76.1404 -106.532 56.0712  255 255 255
27.1152 -99.4888 -21.1195  255 255 255
26.9727 -99.4209 -21.6915  255 255 255
49.9051 -100.463 -18.4543  255 255 255
31.2747 -99.018 -31.171  255 255 255
46.0648 -99.9327 -26.9156  255 255 255
46.0963 -99.9597 -26.7058  255 255 255
-26.8694 -108.314 93.1201  255 255 255
-41.927 -100.23 -1.25029  255 255 255
-27.1866 -100.763 -3.93499  255 255 255
46.9552 -100.766 -23.1216  255 255 255
35.8214 -100.625 -24.3114  255 255 255
-30.6985 -101.093 -0.49826  255 255 255
-21.8447 -98.773 -86.6927  255 255 255
-36.7851 -104.083 3.92849  255 255 255
56.2328 -105.027 -15.0714  255 255 255
29.299 -105.248 -17.3258  255 255 255
76.6257 -111.49 55.0503  255 255 255
77.0174 -110.392 43.9462  255 255 255
80.4071 -111.463 53.6408  255 255 255
-29.626 -112.158 85.8553  255 255 255
27.7334 -106.667 -23.4461  255 255 255
27.7214 -106.661 -23.4454  255 255 255
27.2592 -106.265 -28.1825  255 255 255
33.1491 -106.738 -23.7198  255 255 255
34.3828 -106.164 -34.8881  255 255 255
-25.5576 -107.807 -4.99252  255 255 255
26.6498 -107.072 -29.6576  255 255 255
80.2575 -113.172 48.8331  255 255 255
-31.3299 -108.486 0.808884  255 255 255
-35.4248 -108.398 -6.40271  255 255 255
-31.4135 -109.019 -0.27628  255 255 255
-26.0948 -109.663 2.32884  255 255 255
-24.2526 -115.371 91.4329  255 255 255
22.8564 -108.747 -29.1662  255 255 255
31.2357 -109.581 -23.2214  255 255 255
-25.03 -110.165 -3.79192  255 255 255
-24.326 -110.853 -2.29536  255 255 255
34.5591 -112.554 105.427  255 255 255
-37.4832 -111.852 6.314  255 255 255
-31.4795 -111.431 1.00739  255 255 255
-29.7781 -111.607 -0.257961  255 255 255
31.5668 -111.315 -23.3146  255 255 255
-25.5273 -115.233 51.2631  255 255 255
26.138 -111.598 -30.8444  255 255 255
-29.9055 -112.523 -6.34491  255 255 255
-37.8142 -114.168 -0.315677  255 255 255
-39.2985 -114.458 0.253238  255 255 255
91.3901 137.952 45.3066  255 255 255
82.112 124.265 63.1035  255 255 255
78.4462 116.719 49.6094  255 255 255
114.267 105.967 40.89  255 255 255
-195.27 267.104 -159.87  255 255 255
38.5649 170.086 -58.4668  255 255 255
57.7834 134.629 -0.341199  255 255 255
-181.046 206.031 -62.2186  255 255 255
58.6802 129.181 4.84899  255 255 255
62.1027 125.951 4.77328  255 255 255
-9.59388 140.297 -1.74686  255 255 255
59.1227 122.234 8.08667  255 255 255
36.7023 125.763 1.63712  255 255 255
-31.2315 132.326 8.28806  255 255 255
9.63933 135.55 -8.89256  255 255 255
83.5462 87.5121 58.4803  255 255 255
-211.553 218.359 -104.791  255 255 255
-6.87626 135.401 -9.17255  255 255 255
-192.736 221.814 -123.091  255 255 255
37.0854 135.761 -26.5947  255 255 255
59.3912 114.962 4.76049  255 255 255
10.1012 131.809 -15.6318  255 255 255
38.9451 119.101 -1.99535  255 255 255
