ply
format ascii 1.0
element vertex 1251
property float x
property float y
property float z
property uchar red
property uchar green
property uchar blue
end_header
-63.6367 -33.6923 114.419  255 255 255
-63.1886 -33.5278 113.962  255 255 255
-63.5097 -14.8442 114.336  255 255 255
-63.678 -15.7572 113.878  255 255 255
-60.5948 -18.5017 113.84  255 255 255
-59.299 -14.552 114.576  255 255 255
-56.1842 -39.7049 112.44  255 255 255
-56.2075 -39.0009 113.089  255 255 255
-61.2781 -24.3972 110.441  255 255 255
-57.8558 -31.776 111.124  255 255 255
-136.627 98.6461 53.6481  255 255 255
-53.7069 19.8046 114.67  255 255 255
-52.5773 -14.6514 111.342  255 255 255
-50.8932 -41.8132 108.972  255 255 255
-50.8142 -39.35 105.816  255 255 255
-46.2282 -7.89074 107.735  255 255 255
-43.2967 -9.0595 111.444  255 255 255
-33.4328 0.254329 117.677  255 255 255
-45.9846 -60.6947 103.992  255 255 255
-32.1098 0.621087 117.3  255 255 255
-44.6077 -39.7567 105.595  255 255 255
-48.0472 -89.3126 97.5273  255 255 255
-47.6747 -79.6075 99.18  255 255 255
-29.5647 0.070706 113.104  255 255 255
-38.2311 -20.5284 102.918  255 255 255
-37.4213 -37.0912 103.317  255 255 255
-39.1297 -78.6951 100.8  255 255 255
-35.4855 -43.329 104.935  255 255 255
-40.1159 -52.5028 99.1938  255 255 255
-38.8168 -66.4775 100.324  255 255 255
-41.0429 -80.1846 97.1086  255 255 255
-38.712 -75.0428 98.7332  255 255 255
-40.2773 -83.4768 97.3381  255 255 255
-32.6598 -42.2232 102.844  255 255 255
-36.7893 -78.3326 97.984  255 255 255
-32.825 -22.674 102.281  255 255 255
-31.6638 -23.6529 102.59  255 255 255
-33.2902 -65.7864 98.6805  255 255 255
-29.5306 0.194768 101.378  255 255 255
-28.4513 20.3741 103.626  255 255 255
-21.5948 0.502477 107.687  255 255 255
-28.8441 -40.533 98.6346  255 255 255
-17.8672 3.56822 105.904  255 255 255
-27.0071 -60.2137 95.071  255 255 255
-21.6524 -17.2666 99.7219  255 255 255
-19.0929 -0.809721 98.6397  255 255 255
-17.1237 6.36802 99.4581  255 255 255
-12.1393 4.57606 103.344  255 255 255
-11.2053 -36.4984 96.623  255 255 255
-14.1598 -39.5206 93.4669  255 255 255
-16.5709 -58.949 89.6825  255 255 255
-18.0352 -46.6385 89.0967  255 255 255
-17.7287 -55.8525 89.7793  255 255 255
-12.2383 -57.9264 94.031  255 255 255
-17.5774 -67.8982 87.0905  255 255 255
-12.4541 -59.6633 92.327  255 255 255
-2.98567 -6.60609 100.103  255 255 255
-13.4054 -16.4567 89.378  255 255 255
-11.3728 -45.3121 91.2841  255 255 255
-11.906 -30.1758 90.8641  255 255 255
-12.2847 -43.7595 89.9307  255 255 255
-6.5757 -16.5978 96.3609  255 255 255
-14.5733 -51.519 86.2381  255 255 255
-16.8921 -69.5516 84.4457  255 255 255
-17.4025 -89.3398 85.0739  255 255 255
-4.72103 -25.5466 95.069  255 255 255
-24.2332 -32.3292 74.0591  255 255 255
-8.34641 -7.95408 87.9302  255 255 255
-12.3911 -80.2337 89.0843  255 255 255
-9.24203 -16.9032 85.7108  255 255 255
-18.2931 -17.7405 74.3535  255 255 255
-5.93294 -17.7459 89.7607  255 255 255
-13.7776 -79.642 77.2571  255 255 255
-10.3663 -42.4296 78.7071  255 255 255
-18.2764 -6.59104 65.6392  255 255 255
-96.5215 -49.4703 124.457  255 255 255
-97.254 -38.7894 124.9  255 255 255
-97.8676 -28.6836 125.362  255 255 255
-95.67 -32.5581 122.992  255 255 255
-88.065 -22.3396 130.082  255 255 255
-90.2692 -21.6679 124.242  255 255 255
-86.1638 -2.5629 124.686  255 255 255
-82.6933 -43.5744 121.175  255 255 255
-84.3449 -3.58208 124.734  255 255 255
-84.1552 -3.85405 124.053  255 255 255
-77.1676 -17.4334 126.079  255 255 255
-81.555 -3.75233 121.46  255 255 255
-82.8351 -27.3878 119.151  255 255 255
-82.3402 -22.3863 120.587  255 255 255
-82.3535 -28.6927 120.119  255 255 255
-45.0821 -90.1964 137.017  255 255 255
-77.5014 -29.061 121.936  255 255 255
-80.5433 -24.5852 119.692  255 255 255
-79.7846 -0.413705 121.611  255 255 255
-77.8701 -14.2944 120.247  255 255 255
-79.5006 -3.7272 120.22  255 255 255
-78.5453 -3.73597 121.274  255 255 255
-77.5027 5.4545 120.712  255 255 255
-77.0947 -7.96585 120.374  255 255 255
-78.8126 -6.33375 118.152  255 255 255
-74.2159 -15.7827 121.813  255 255 255
-77.4541 -26.635 118.677  255 255 255
-76.2399 -25.2285 117.652  255 255 255
-73.761 -15.0967 120.813  255 255 255
-76.0172 -12.5815 118.941  255 255 255
-74.5475 -7.2464 120.518  255 255 255
-42.1438 -90.1416 135.2  255 255 255
-41.2446 -90.0268 134.48  255 255 255
-74.3865 -0.110325 120.246  255 255 255
-73.7157 -10.144 118.845  255 255 255
-71.5754 20.603 121.48  255 255 255
-71.8224 -7.76616 117.829  255 255 255
-65.7443 -49.6891 117.308  255 255 255
-67.3084 -31.3385 116.586  255 255 255
-68.9919 -19.4281 115.184  255 255 255
-67.5916 20.6136 119.334  255 255 255
-58.1496 15.5059 123.781  255 255 255
-64.1242 -23.7809 118.185  255 255 255
-64.1351 -16.5727 118.102  255 255 255
-65.2871 -2.69281 115.782  255 255 255
-65.0425 -40.11 112.794  255 255 255
-61.5768 -6.97208 115.676  255 255 255
-142.502 98.8351 58.9381  255 255 255
-59.9224 -29.4019 114.715  255 255 255
-59.0811 -32.7747 113.52  255 255 255
-58.8629 -9.19283 112.988  255 255 255
-64.0754 -28.9897 107.329  255 255 255
-57.9647 -79.5938 102.886  255 255 255
-52.0214 -51.9475 104.662  255 255 255
-53.3283 -79.5402 100.955  255 255 255
-52.1043 -80.6045 101.977  255 255 255
-47.0143 -27.0088 107.483  255 255 255
-50.1191 -58.1752 103.895  255 255 255
-49.384 -85.1308 98.1697  255 255 255
-41.7895 5.90633 108.496  255 255 255
-43.4302 -91.427 102.992  255 255 255
-42.328 -60.8896 103.46  255 255 255
-43.0275 -83.1463 101.994  255 255 255
-42.9535 -57.259 100.656  255 255 255
-39.0591 -15.8926 105.849  255 255 255
-39.3631 -64.9639 98.8213  255 255 255
-37.3112 -76.1281 99.1867  255 255 255
-33.6759 -25.3505 103.984  255 255 255
-35.3538 -59.2745 99.8422  255 255 255
-37.2077 -51.6973 97.9194  255 255 255
-25.5817 -10.5283 107.598  255 255 255
-31.0308 -64.085 94.5844  255 255 255
-29.848 -69.7004 90.1601  255 255 255
-24.9315 -74.0654 91.1608  255 255 255
-25.3998 -79.758 90.9995  255 255 255
-18.9473 4.45379 95.9646  255 255 255
-17.4845 7.23528 92.9602  255 255 255
-19.1445 -35.5268 90.5445  255 255 255
-14.6941 -38.7465 95.4644  255 255 255
-17.7582 -50.0374 92.9465  255 255 255
-18.6922 -30.2973 87.7862  255 255 255
-18.5781 -51.2506 90.4308  255 255 255
-16.8119 -52.0177 90.4408  255 255 255
-12.7721 -42.8658 93.914  255 255 255
-12.8322 -53.1793 94.5736  255 255 255
-13.0525 -45.7471 90.6833  255 255 255
-14.454 -50.5412 90.216  255 255 255
-14.152 -49.896 90.74  255 255 255
-15.3811 -47.635 90.6996  255 255 255
-19.4408 -42.4312 84.4139  255 255 255
-13.9765 -6.56522 90.0934  255 255 255
-19.936 -69.5718 85.9277  255 255 255
-14.6662 -93.3322 92.6921  255 255 255
-19.0312 -11.4367 83.6572  255 255 255
-19.0583 -11.514 84.7765  255 255 255
-20.2167 -51.0716 83.6151  255 255 255
-17.1628 -69.9012 86.7972  255 255 255
-14.2583 -20.4082 82.8395  255 255 255
-16.2977 -62.8083 80.2351  255 255 255
-16.0075 -41.4965 77.9189  255 255 255
-16.4712 -80.6577 81.1814  255 255 255
-20.1475 -45.1605 74.6691  255 255 255
-16.372 -48.5969 75.2066  255 255 255
-9.28557 -28.0728 83.5954  255 255 255
-14.2777 -78.9917 72.5853  255 255 255
-16.0268 -82.7902 66.8069  255 255 255
2.07548 25.5935 76.5028  255 255 255
-86.8822 -46.2245 128.457  255 255 255
-95.4711 1.98573 128.863  255 255 255
-93.1443 0.290715 128.787  255 255 255
-85.8139 -62.5885 126.019  255 255 255
-88.6395 -4.24931 126.032  255 255 255
-88.7434 -4.05485 125.343  255 255 255
-81.2119 -8.00611 125.595  255 255 255
-83.5194 3.29326 123.956  255 255 255
-82.4039 -8.21246 122.628  255 255 255
-83.8716 -8.08984 123.337  255 255 255
-83.578 -48.5898 116.985  255 255 255
-79.2976 -6.20173 120.46  255 255 255
-78.4814 5.07006 122.597  255 255 255
-34.7495 -90.1053 143.772  255 255 255
-79.0597 3.82055 121.191  255 255 255
-77.2913 -1.86057 120.384  255 255 255
-42.1024 -90.7867 133.043  255 255 255
-42.7709 -91.2974 134.58  255 255 255
-74.2169 -24.6902 117.384  255 255 255
-43.482 -94.6815 131.535  255 255 255
-67.9756 -50.8245 116.961  255 255 255
-70.1131 -9.29229 116.668  255 255 255
-68.5876 -45.3983 113.466  255 255 255
-66.4763 -45.2874 112.728  255 255 255
-71.6536 -29.0475 104.897  255 255 255
-62.1598 -8.82822 113.282  255 255 255
-60.814 -46.5472 111.612  255 255 255
-56.6493 2.13347 114.804  255 255 255
-59.8574 -35.566 109.166  255 255 255
-58.3497 -32.7117 111.42  255 255 255
-57.839 -33.4531 111.216  255 255 255
-50.307 -77.1093 106.731  255 255 255
-49.4675 -29.6174 105.186  255 255 255
-46.4771 -62.3675 104.66  255 255 255
-47.7064 -85.6569 99.0457  255 255 255
-45.0147 -68.7665 102.067  255 255 255
-40.4229 -40.7244 101.505  255 255 255
-35.837 2.71494 105.712  255 255 255
-36.6914 -6.73158 104.581  255 255 255
-36.1257 -70.3789 97.9123  255 255 255
-33.6641 -70.7619 97.8681  255 255 255
-36.6773 -80.6226 95.6385  255 255 255
-32.2802 -30.4176 99.4232  255 255 255
-31.3271 -80.4972 93.1097  255 255 255
-25.3856 -21.3212 93.0799  255 255 255
-14.1186 6.41262 94.4478  255 255 255
-17.3654 -35.629 89.6848  255 255 255
-21.1399 -53.9565 86.1718  255 255 255
-20.0384 -63.3028 88.1611  255 255 255
-4.0494 -3.40344 101.17  255 255 255
-1.69257 -19.3418 100.948  255 255 255
-19.4248 -91.4223 85.84  255 255 255
-18.5633 -78.9174 83.299  255 255 255
-10.8196 -44.7531 85.3252  255 255 255
-10.4386 -45.5381 82.8162  255 255 255
-97.9341 -32.3601 120.672  255 255 255
-87.752 -41.3764 125.202  255 255 255
-92.4124 -38.391 120.89  255 255 255
-86.9661 -70.5332 120.679  255 255 255
-88.7396 -5.67293 124.268  255 255 255
-90.6322 1.31894 124.831  255 255 255
-78.0616 -33.3699 127.269  255 255 255
-86.6374 -30.6442 120.42  255 255 255
-80.9695 -23.8403 126.062  255 255 255
-82.3551 -21.4148 118.28  255 255 255
-78.5758 -42.3927 116.984  255 255 255
-78.332 -42.0324 117.383  255 255 255
-76.5491 -43.1708 115.808  255 255 255
-74.5342 -48.7104 119.088  255 255 255
-72.0091 -43.5981 115.33  255 255 255
-70.4548 -36.9265 111.871  255 255 255
-63.5729 -24.8594 116.692  255 255 255
-66.3329 -18.3464 113.812  255 255 255
-65.5789 -18.1684 114.425  255 255 255
-63.0322 -45.0364 112.302  255 255 255
-63.1982 -31.3362 111.948  255 255 255
-55.5358 6.23234 116.258  255 255 255
-39.899 5.52891 110.583  255 255 255
-42.0098 -84.9102 102.34  255 255 255
-36.7173 -73.215 96.9549  255 255 255
-32.6232 -77.6873 96.1596  255 255 255
-22.1212 7.81442 101.146  255 255 255
-16.747 -28.4521 90.3118  255 255 255
-19.0013 -79.8278 86.9245  255 255 255
-20.6682 -43.133 73.9141  255 255 255
-5.8847 -16.486 88.4655  255 255 255
-16.9436 -65.342 78.9816  255 255 255
-10.6158 -76.9994 85.7905  255 255 255
-10.9982 -43.4993 80.0928  255 255 255
-89.8765 -37.1052 120.853  255 255 255
-80.8396 -33.8743 117.961  255 255 255
-80.8464 -26.8178 119.152  255 255 255
-74.3152 -43.3783 118.602  255 255 255
-71.7314 -39.4099 115.968  255 255 255
-38.2917 -54.7755 96.977  255 255 255
-38.71 -55.9236 96.5817  255 255 255
-7.64927 -14.8552 78.9456  255 255 255
-10.7024 -33.3614 72.1262  255 255 255
-78.7739 -13.5937 121.211  255 255 255
-79.498 -38.4512 117.15  255 255 255
-73.8823 -25.1898 116.994  255 255 255
-41.3301 -92.7707 132.108  255 255 255
-57.3786 -73.3458 104.058  255 255 255
-54.341 -40.4751 104.848  255 255 255
-52.1152 -42.0376 106.722  255 255 255
-50.8929 -40.6364 99.3676  255 255 255
-42.4952 -69.4238 99.5128  255 255 255
-38.8598 -66.1227 101.598  255 255 255
-35.3306 -42.9412 102.587  255 255 255
-31.8506 -44.0207 101.527  255 255 255
-17.6272 -7.06746 92.7512  255 255 255
-14.2998 -12.6652 97.3628  255 255 255
-20.1481 -51.4673 87.6976  255 255 255
-12.9713 -82.971 87.5755  255 255 255
-19.6765 -45.2745 69.2077  255 255 255
-28.8761 -88.9441 135.378  255 255 255
-53.1635 -37.0842 112.659  255 255 255
-17.6733 -0.856839 96.9142  255 255 255
-11.3933 -73.1492 84.8749  255 255 255
-21.3994 4.02969 65.0228  255 255 255
-77.2575 -36.842 118.226  255 255 255
-51.3765 -78.5018 99.9977  255 255 255
-62.8677 -31.6251 114.509  255 255 255
-18.9123 113.061 5.56667  255 255 255
-51.2621 108.53 15.7333  255 255 255
23.7068 113.881 -10.1213  255 255 255
-19.8518 109.717 6.71537  255 255 255
-2.2967 112.576 -2.87041  255 255 255
-29.5885 110.432 9.69367  255 255 255
37.341 113.07 -14.86  255 255 255
-29.3286 108.051 11.4  255 255 255
9.61974 106.179 8.96441  255 255 255
31.5202 109.974 -14.3155  255 255 255
27.957 103.076 -15.6562  255 255 255
37.7614 100.02 -18.5069  255 255 255
5.22849 91.3361 10.2761  255 255 255
28.8623 93.0829 -16.621  255 255 255
65.9612 89.0287 -1.98403  255 255 255
6.79601 83.454 9.39692  255 255 255
43.949 87.6933 -22.6643  255 255 255
-14.9321 79.7564 -1.46372  255 255 255
9.2202 75.9697 3.84652  255 255 255
37.3281 80.1073 -23.0839  255 255 255
77.8207 61.2268 68.0341  255 255 255
-5.52119 72.8638 10.4307  255 255 255
41.5863 71.9451 -4.04684  255 255 255
41.9047 72.9285 -4.09366  255 255 255
-2.21741 70.7319 8.40754  255 255 255
40.9298 72.0896 -6.76839  255 255 255
-7.77146 70.6366 9.84441  255 255 255
5.36378 70.7162 3.30488  255 255 255
41.6178 71.4478 -6.03901  255 255 255
-4.36356 69.9046 10.4359  255 255 255
22.0909 69.0596 -0.741631  255 255 255
-26.5065 68.1101 13.8116  255 255 255
-24.4546 67.3535 13.7612  255 255 255
47.8918 69.3239 -14.6081  255 255 255
-0.485456 66.5017 9.13387  255 255 255
18.7429 66.9527 -1.79034  255 255 255
18.6313 67.1156 -2.33231  255 255 255
48.7304 67.374 -14.7973  255 255 255
57.0297 63.5269 -1.88576  255 255 255
19.8167 61.5078 -2.06968  255 255 255
-9.43658 61.3435 9.73805  255 255 255
22.027 57.0835 -2.40703  255 255 255
-27.7393 54.9463 28.7669  255 255 255
-7.95711 55.0895 5.70306  255 255 255
-9.91846 55.9941 8.10918  255 255 255
2.3514 55.9986 -1.19472  255 255 255
-22.7634 54.1273 9.07369  255 255 255
17.929 53.9641 -5.28269  255 255 255
14.1009 51.0306 -4.5812  255 255 255
5.37241 50.954 -1.7951  255 255 255
8.97585 49.5811 -4.06961  255 255 255
-2.12165 50.4806 -2.7499  255 255 255
-6.74141 49.229 3.74507  255 255 255
-7.10459 49.6879 2.80252  255 255 255
-52.7281 51.5649 5.20964  255 255 255
60.1285 43.9987 13.6329  255 255 255
15.6541 47.261 -6.5615  255 255 255
70.0199 40.3081 52.6521  255 255 255
55.8873 42.2345 -2.88525  255 255 255
104.274 37.299 48.7254  255 255 255
7.82917 45.9092 -3.65817  255 255 255
6.65734 45.6393 -4.14384  255 255 255
-13.4818 43.9205 9.33746  255 255 255
-19.2861 43.5299 11.6025  255 255 255
54.0391 42.3615 -10.9587  255 255 255
55.57 41.241 -11.4052  255 255 255
54.7789 40.908 -11.0117  255 255 255
63.1579 36.5795 21.2223  255 255 255
-13.8283 40.7619 6.88791  255 255 255
31.7583 34.7089 -10.2876  255 255 255
-28.9662 35.5011 15.8934  255 255 255
6.33562 35.5281 -5.60438  255 255 255
23.5736 33.9321 -10.5255  255 255 255
66.7421 28.7773 39.3036  255 255 255
108.332 27.8142 40.8063  255 255 255
40.6164 31.218 -11.1999  255 255 255
81.2312 27.0926 61.1427  255 255 255
21.9894 29.0286 -10.151  255 255 255
19.9998 29.3703 -7.62377  255 255 255
20.5458 29.9163 -7.99627  255 255 255
-24.619 29.1336 5.55295  255 255 255
-4.11339 28.6971 -1.26501  255 255 255
5.24445 26.9825 -8.66526  255 255 255
29.6225 23.9285 -11.1858  255 255 255
66.016 20.4258 10.4432  255 255 255
24.0944 21.2783 -11.8698  255 255 255
117.931 13.2344 33.8823  255 255 255
109.85 11.0332 40.1347  255 255 255
18.5418 14.4451 -15.0607  255 255 255
40.413 11.3067 -11.2984  255 255 255
29.4415 10.2428 -14.8529  255 255 255
44.6178 9.79199 -15.5444  255 255 255
2.22313 11.6878 -6.21023  255 255 255
-7.28902 11.0948 -6.04527  255 255 255
31.4978 7.57454 -15.8182  255 255 255
37.0671 6.98581 -14.3554  255 255 255
59.2767 7.16129 21.6934  255 255 255
-8.31423 10.1844 -6.00812  255 255 255
21.251 7.68769 -15.851  255 255 255
35.9438 6.00369 -16.0847  255 255 255
30.0177 5.91536 -15.7832  255 255 255
44.3401 2.90752 -14.2159  255 255 255
20.618 2.78616 -24.7363  255 255 255
-3.69979 4.24367 -7.58835  255 255 255
-25.5247 8.86915 103.9  255 255 255
60.7392 -2.30734 -8.17741  255 255 255
52.9333 -4.88169 -11.6298  255 255 255
60.3547 -5.11689 22.6441  255 255 255
-15.2812 4.37498 97.3418  255 255 255
8.04269 -5.58773 -12.8781  255 255 255
78.9952 -6.00081 59.7392  255 255 255
85.5691 -7.49154 52.9754  255 255 255
-28.2031 2.30081 101.262  255 255 255
-23.6677 2.86068 97.7123  255 255 255
-48.2125 4.22883 108.565  255 255 255
-38.0292 3.16938 106.054  255 255 255
50.227 -13.6237 -16.5256  255 255 255
98.2226 -13.9764 29.9369  255 255 255
112.846 -12.1962 38.3465  255 255 255
113.707 -13.7549 37.3854  255 255 255
28.8455 -17.2789 -20.6963  255 255 255
117.02 -17.8921 30.6646  255 255 255
8.34491 -17.3114 -14.1162  255 255 255
53.4462 -22.143 -13.7759  255 255 255
37.0811 -22.2546 -19.2179  255 255 255
-33.3352 -4.48221 101.19  255 255 255
-24.4111 -6.58285 99.5562  255 255 255
3.93428 -24.0216 -2.03295  255 255 255
-36.3993 -8.1234 103.835  255 255 255
37.6361 -29.8093 -18.2333  255 255 255
-35.8585 -8.73606 102.028  255 255 255
-47.6491 -8.13304 107.797  255 255 255
-37.4937 -10.5586 103.555  255 255 255
17.9675 -32.2254 -20.6588  255 255 255
16.6051 -32.6243 -16.1942  255 255 255
-19.749 -14.6036 93.7294  255 255 255
19.5755 -38.9304 -18.8905  255 255 255
-50.4126 -13.7122 107.459  255 255 255
34.107 -40.6978 -18.6027  255 255 255
-36.1648 -17.1086 101.585  255 255 255
-47.1397 -16.476 106.857  255 255 255
-50.0075 -17.4737 107.568  255 255 255
28.5748 -47.5441 -16.099  255 255 255
-70.0984 -17.2903 114.898  255 255 255
27.2774 -50.2118 -19.1609  255 255 255
-64.8432 -17.8254 112.72  255 255 255
-33.6989 -26.0578 101.27  255 255 255
-35.8928 -23.7783 120.35  255 255 255
-71.5924 -21.0242 114.8  255 255 255
23.9371 -57.6739 -19.8603  255 255 255
-33.2305 -28.7355 99.2986  255 255 255
53.9645 -59.626 -6.92541  255 255 255
-37.0789 -30.1823 101.42  255 255 255
24.9845 -70.2487 -19.9081  255 255 255
102.328 -67.0433 34.5633  255 255 255
-40.4618 -43.8899 99.4016  255 255 255
-42.311 -45.4504 101.267  255 255 255
-38.7473 -46.9365 99.0183  255 255 255
28.53 -92.1693 -25.1386  255 255 255
-42.8058 -50.3774 99.9532  255 255 255
-41.0037 -51.7899 100.213  255 255 255
-37.2999 -55.1122 98.3772  255 255 255
-39.9656 -59.171 101.48  255 255 255
33.7206 -111.056 -28.8307  255 255 255
10.697 -115.474 -33.7317  255 255 255
11.8064 -119.566 -33.8687  255 255 255
25.1212 -117.328 -28.6511  255 255 255
12.2116 -121.559 -34.5226  255 255 255
76.5474 -98.1439 46.7261  255 255 255
78.2712 -99.1866 46.5126  255 255 255
-32.7411 -80.7061 93.8155  255 255 255
-38.0714 -80.4266 95.0382  255 255 255
-37.8968 -80.3702 95.5002  255 255 255
-40.3998 -89.7951 95.12  255 255 255
-47.0163 -88.7434 97.2275  255 255 255
64.2094 122.87 8.27882  255 255 255
24.3747 113.214 16.1299  255 255 255
-51.2451 107.903 16.0318  255 255 255
15.9281 112.738 -8.70228  255 255 255
35.2125 99.821 -18.7873  255 255 255
-24.8072 91.9501 -1.55186  255 255 255
12.7808 81.6789 4.01531  255 255 255
-0.740314 75.7908 10.3225  255 255 255
-4.48166 71.9225 10.9349  255 255 255
64.4441 65.027 33.5238  255 255 255
53.5204 69.0891 2.21332  255 255 255
94.8058 61.6083 32.5529  255 255 255
50.897 68.5049 -16.3609  255 255 255
15.0554 65.0847 4.81636  255 255 255
22.8225 65.3966 -4.29122  255 255 255
31.9594 66.0544 -9.22886  255 255 255
3.48727 63.7617 4.11117  255 255 255
8.21628 63.4958 1.09046  255 255 255
-45.5652 62.0494 27.3458  255 255 255
-2.0479 62.0623 4.04928  255 255 255
91.0646 50.2557 57.7514  255 255 255
-42.7768 54.5192 31.9334  255 255 255
1.38251 55.9338 0.244481  255 255 255
-16.4099 53.583 11.8853  255 255 255
24.2314 51.8392 -3.11659  255 255 255
91.1899 45.2573 34.4358  255 255 255
48.5614 47.1517 -15.9802  255 255 255
6.99313 47.3088 -2.82354  255 255 255
109.779 37.9526 45.6863  255 255 255
11.6292 44.4867 -0.998727  255 255 255
33.783 42.0265 -10.8754  255 255 255
-11.6612 42.1245 9.29906  255 255 255
110.438 33.3694 46.032  255 255 255
-5.91219 41.0616 2.41868  255 255 255
-5.79919 40.5373 1.0636  255 255 255
65.4704 36.7946 32.843  255 255 255
57.9993 37.7157 3.9883  255 255 255
17.3367 39.9621 -4.99668  255 255 255
56.9632 36.6638 2.81896  255 255 255
36.0711 40.0975 -13.0163  255 255 255
-11.6475 40.0471 2.1689  255 255 255
33.6338 38.2599 -10.7389  255 255 255
71.5389 32.343 53.7047  255 255 255
74.528 30.4654 65.2798  255 255 255
51.1455 31.4482 -14.3003  255 255 255
42.9378 31.5168 -11.3508  255 255 255
13.881 33.3537 -6.55678  255 255 255
13.5584 33.4494 -4.53575  255 255 255
27.0556 31.9791 -11.0422  255 255 255
10.1896 30.5585 -7.33434  255 255 255
6.31404 28.2419 -10.1318  255 255 255
40.052 24.7695 -10.4007  255 255 255
63.6334 22.1942 7.62334  255 255 255
-2.60818 25.0487 -6.10162  255 255 255
80.8875 19.4546 61.7022  255 255 255
61.9209 22.0149 7.18097  255 255 255
72.4789 19.6877 63.2775  255 255 255
-4.35775 22.5101 -6.00707  255 255 255
23.44 18.6542 -12.9512  255 255 255
-41.3709 22.5365 119.03  255 255 255
22.1915 13.2914 -13.0797  255 255 255
22.2317 13.721 -12.8565  255 255 255
56.6091 12.7011 -0.778115  255 255 255
26.2704 14.156 -15.0748  255 255 255
100.398 9.36766 29.1158  255 255 255
55.6211 10.1169 -3.45329  255 255 255
64.0799 9.6088 18.0438  255 255 255
60.1022 9.63795 -1.90023  255 255 255
87.913 6.01109 54.9735  255 255 255
50.0225 5.68425 -21.7471  255 255 255
15.6597 7.54213 -15.2762  255 255 255
36.2689 3.01486 -12.3073  255 255 255
20.5993 1.9085 -17.6148  255 255 255
56.5381 -2.35438 -9.83497  255 255 255
53.9148 -5.14257 -9.85188  255 255 255
24.6888 -4.12355 -15.4215  255 255 255
30.2754 -4.06824 -17.3465  255 255 255
106.4 -8.20561 35.783  255 255 255
95.2546 -10.4383 30.1353  255 255 255
117.283 -13.3998 25.4771  255 255 255
-66.0834 4.01259 115.156  255 255 255
115.174 -16.7339 19.6727  255 255 255
106.507 -15.3088 35.0557  255 255 255
119.181 -15.7675 24.2171  255 255 255
24.7034 -14.5463 -16.0261  255 255 255
114.011 -17.897 35.7933  255 255 255
-51.9175 0.587168 117.582  255 255 255
29.0772 -31.1749 -17.8197  255 255 255
-73.2035 -6.53411 117.043  255 255 255
20.8322 -37.6094 -21.5731  255 255 255
14.3676 -44.5644 -12.5159  255 255 255
-38.9218 -21.1521 102.102  255 255 255
113.35 -49.8691 6.78842  255 255 255
15.5185 -47.4775 -10.6033  255 255 255
-59.4152 -18.4759 122.574  255 255 255
24.374 -55.4777 -21.8227  255 255 255
-65.349 -19.6962 124.689  255 255 255
3.06717 -55.3035 -12.4061  255 255 255
8.4633 -55.7659 -18.2429  255 255 255
-33.7471 -27.4429 101.636  255 255 255
-48.8912 -24.6473 105.442  255 255 255
-39.4972 -29.2034 103.216  255 255 255
29.2715 -61.1285 -20.4106  255 255 255
117.335 -59.641 24.6524  255 255 255
109.487 -59.0685 25.7979  255 255 255
109.351 -59.9738 31.0683  255 255 255
54.8178 -65.9428 -3.97092  255 255 255
121.018 -68.0675 8.78857  255 255 255
-21.8382 -37.2528 95.6618  255 255 255
103.027 -68.6973 10.682  255 255 255
-60.6853 -35.8394 112.11  255 255 255
24.0883 -77.5292 -20.9298  255 255 255
72.0631 -63.6967 54.8328  255 255 255
-42.0263 -42.3444 104.964  255 255 255
21.1641 -87.7494 -24.3667  255 255 255
68.8043 -71.1823 46.9052  255 255 255
29.2431 -88.5544 -21.5563  255 255 255
69.6091 -75.7557 46.0734  255 255 255
70.4584 -74.7043 46.6215  255 255 255
66.5023 -80.2933 43.4575  255 255 255
21.956 -102.451 -26.9612  255 255 255
-42.9272 -55.9195 99.3312  255 255 255
8.38483 -111.074 -31.3135  255 255 255
36.4089 -115.691 -29.2168  255 255 255
8.94007 -119.954 -32.8392  255 255 255
-24.4325 -76.1057 90.9079  255 255 255
-39.8529 -84.9264 96.108  255 255 255
-40.3352 -92.1299 96.2064  255 255 255
-45.5697 -91.1468 97.1838  255 255 255
-40.7408 -94.9902 94.4165  255 255 255
-45.7163 -101.909 95.784  255 255 255
-50.2448 -103.035 99.2353  255 255 255
-30.3587 -109.315 89.1922  255 255 255
91.4818 104.453 36.449  255 255 255
31.984 110.782 4.14391  255 255 255
-49.4235 100.021 16.8532  255 255 255
-2.43996 96.7658 -2.91996  255 255 255
-49.2253 89.7324 14.9185  255 255 255
6.09542 85.4789 9.78224  255 255 255
4.77928 82.3738 20.5079  255 255 255
56.0344 82.6232 -1.45822  255 255 255
55.2814 80.25 2.42651  255 255 255
109.725 70.5459 33.906  255 255 255
-96.7541 88.2949 -39.7966  255 255 255
59.9887 62.5495 20.4874  255 255 255
11.6106 64.7831 -0.64592  255 255 255
21.0329 64.6629 -2.85957  255 255 255
-23.227 62.8564 10.2838  255 255 255
2.42005 53.6714 -2.43386  255 255 255
-13.9119 52.1056 7.19369  255 255 255
24.5409 50.7939 -4.77551  255 255 255
24.6981 51.3595 -5.80891  255 255 255
45.2428 48.8272 -12.8622  255 255 255
97.8095 40.4486 33.5701  255 255 255
99.2962 40.5999 35.1245  255 255 255
0.204716 47.2668 -0.0290227  255 255 255
63.3646 42.1232 23.8666  255 255 255
27.8767 45.3906 -7.95852  255 255 255
55.5273 42.7565 -3.05989  255 255 255
111.138 36.9496 34.9402  255 255 255
-8.81399 44.4491 3.38348  255 255 255
31.9494 39.7928 -10.5528  255 255 255
4.64974 37.2266 -1.41211  255 255 255
58.8898 33.2616 14.8207  255 255 255
-1.99609 35.2372 0.493902  255 255 255
37.4384 31.6112 -11.9104  255 255 255
58.6012 30.2815 9.15266  255 255 255
-25.7823 33.3916 12.1256  255 255 255
10.7569 30.5604 -2.68318  255 255 255
-17.4175 29.2129 8.00736  255 255 255
43.3626 23.489 -13.1268  255 255 255
62.8493 19.256 12.0976  255 255 255
22.9017 21.3022 -12.4121  255 255 255
116.346 12.5069 34.6034  255 255 255
71.074 13.0759 66.2446  255 255 255
113.409 10.0616 26.4088  255 255 255
51.6561 12.3469 -18.632  255 255 255
56.724 10.6959 -3.55725  255 255 255
25.5583 11.5456 -14.3136  255 255 255
25.9725 9.80952 -13.839  255 255 255
23.6072 9.7532 -16.5322  255 255 255
21.7022 6.41858 -16.7066  255 255 255
22.6771 6.59516 -17.3342  255 255 255
22.3176 6.56089 -15.2671  255 255 255
31.6718 4.84841 -13.8094  255 255 255
22.4623 2.80739 -15.4241  255 255 255
77.0225 -3.14876 61.7756  255 255 255
116.877 -12.8314 27.0521  255 255 255
115.393 -12.7626 36.3355  255 255 255
118.686 -16.2809 24.7553  255 255 255
79.681 -13.0172 57.1116  255 255 255
-28.2089 -1.37903 101.558  255 255 255
19.955 -17.5295 -23.3511  255 255 255
23.9706 -20.3665 -18.6011  255 255 255
7.25331 -20.0426 -9.67813  255 255 255
-66.3526 -2.58523 122.843  255 255 255
-64.0634 -4.21466 114.001  255 255 255
5.40005 -31.3999 -8.63909  255 255 255
-66.5581 -11.2036 111.062  255 255 255
-27.0671 -17.6011 97.9827  255 255 255
16.4476 -42.7684 -13.1463  255 255 255
10.9344 -42.6354 -15.7354  255 255 255
89.9083 -46.7243 39.3851  255 255 255
32.4831 -63.6801 -24.8406  255 255 255
25.2215 -64.9921 -21.1172  255 255 255
-67.0313 -29.6049 111.71  255 255 255
118.133 -69.8732 28.3329  255 255 255
71.8792 -62.1202 50.6828  255 255 255
27.6809 -98.7277 -25.5331  255 255 255
20.7613 -101.106 -24.3877  255 255 255
54.1251 -105.584 -25.629  255 255 255
69.9684 -82.8877 50.411  255 255 255
69.752 -82.0042 51.0568  255 255 255
-38.804 -56.2028 98.7819  255 255 255
79.0549 -83.9757 49.6891  255 255 255
21.5168 -114.774 -28.6079  255 255 255
31.388 -118.127 -30.7428  255 255 255
-39.3854 -65.5339 101.687  255 255 255
-39.6478 -85.7501 96.4622  255 255 255
-45.2057 -87.1992 97.0178  255 255 255
-47.8923 -86.929 98.7515  255 255 255
-45.5715 -94.3854 96.6733  255 255 255
-47.5667 -94.9198 96.994  255 255 255
-62.3871 -91.7537 101.325  255 255 255
-47.6803 -98.9869 97.8769  255 255 255
-46.8574 -100.892 97.3145  255 255 255
-49.4154 -99.5341 98.7834  255 255 255
70.8697 107.309 33.3424  255 255 255
1.98861 84.3507 8.53593  255 255 255
-88.6519 87.9265 -43.1555  255 255 255
11.6426 73.833 3.82553  255 255 255
-6.25813 69.5598 11.0308  255 255 255
72.5687 55.2469 63.0314  255 255 255
-1.86976 65.1246 8.20823  255 255 255
-48.6988 63.9703 16.0151  255 255 255
13.2534 61.475 -0.658076  255 255 255
12.8195 60.8952 -0.203228  255 255 255
47.3814 60.0279 -14.2128  255 255 255
20.298 45.4298 -2.9409  255 255 255
20.1213 46.2107 -1.98874  255 255 255
4.00625 45.8974 -2.73116  255 255 255
45.34 40.4653 -15.7525  255 255 255
97.2245 27.9928 51.6461  255 255 255
7.08761 31.9106 0.509339  255 255 255
91.5348 26.2503 37.3683  255 255 255
58.5197 17.9691 -6.57372  255 255 255
23.8755 16.0197 -12.5428  255 255 255
64.7057 12.668 23.6293  255 255 255
29.4859 5.91456 -14.4647  255 255 255
30.437 5.65392 -15.2011  255 255 255
31.8722 4.59392 -15.4638  255 255 255
6.95731 3.86173 -13.168  255 255 255
-22.112 8.46204 103.261  255 255 255
87.091 -3.7564 31.4818  255 255 255
107.965 -6.77885 31.4309  255 255 255
108.201 -8.75505 36.6382  255 255 255
-47.4702 4.81356 108.57  255 255 255
-64.0795 6.38861 112.892  255 255 255
-37.032 3.53348 105.281  255 255 255
109.831 -11.7222 46.7834  255 255 255
122.182 -18.2143 20.6631  255 255 255
79.3581 -15.1792 56.1215  255 255 255
41.6829 -24.6893 -15.8246  255 255 255
-8.54073 -44.6657 1.09921  255 255 255
28.5227 -53.5373 -18.8945  255 255 255
-62.5944 -21.3198 113.633  255 255 255
-67.7056 -19.493 123.275  255 255 255
128.287 -65.6171 5.85952  255 255 255
41.9858 -66.3952 -22.131  255 255 255
107.751 -70.6828 31.1081  255 255 255
-37.7065 -65.4586 99.7998  255 255 255
11.2523 -120.499 -34.5133  255 255 255
8.01783 -121.676 -31.6576  255 255 255
-48.5992 -72.097 101.268  255 255 255
-46.3064 -84.0603 98.221  255 255 255
-38.2413 -95.6459 94.8087  255 255 255
-51.483 -97.2177 99.7365  255 255 255
-50.2378 -101.287 97.4292  255 255 255
-47.2078 -104.681 98.453  255 255 255
-49.6898 -104.221 99.0078  255 255 255
40.2508 118.308 7.38216  255 255 255
57.7131 89.9886 9.5238  255 255 255
57.5484 89.1438 12.5718  255 255 255
31.0247 94.5448 -16.269  255 255 255
-89.2255 87.3511 -44.7136  255 255 255
-5.48757 73.2786 11.5827  255 255 255
-4.65251 70.4347 9.91442  255 255 255
46.7987 65.626 -12.5412  255 255 255
46.5487 64.9853 -13.3955  255 255 255
-4.66432 58.4305 5.31865  255 255 255
47.4876 57.5153 -15.1334  255 255 255
47.3388 49.6137 -15.0948  255 255 255
47.4084 49.7841 -15.3583  255 255 255
6.96568 47.2107 -2.43977  255 255 255
47.4056 47.2855 -15.9192  255 255 255
0.206052 45.0281 -1.88422  255 255 255
-13.5511 41.2522 10.5236  255 255 255
-14.6331 41.0323 10.2625  255 255 255
-2.3706 12.1055 -8.15688  255 255 255
63.8356 5.33041 23.845  255 255 255
44.8117 3.57864 -14.952  255 255 255
71.6704 3.93917 55.1645  255 255 255
-38.7495 5.49568 105.534  255 255 255
-22.3535 1.41445 95.8176  255 255 255
-69.4425 -3.099 112.389  255 255 255
-67.742 -9.63985 113.712  255 255 255
-67.9117 -8.79898 114.389  255 255 255
-3.87124 -33.5075 -8.00937  255 255 255
-3.43051 -33.2028 -8.2147  255 255 255
36.4622 -52.9607 -17.4716  255 255 255
-71.6485 -20.8206 114.554  255 255 255
18.6057 -69.3225 -26.2924  255 255 255
-36.1529 -36.7284 101.512  255 255 255
104.29 -67.4813 34.9186  255 255 255
-47.5372 -46.5533 103.735  255 255 255
35.634 -116.762 -28.2216  255 255 255
34.6996 -115.84 -27.953  255 255 255
-38.6931 -99.4199 94.2006  255 255 255
-52.533 -98.8644 98.9971  255 255 255
-47.8919 -103.447 98.2465  255 255 255
-49.6043 -102.978 98.1296  255 255 255
-31.3407 -107.273 90.4436  255 255 255
-47.6294 -109.664 96.5429  255 255 255
51.8625 117.8 -19.1167  255 255 255
6.87292 104.131 11.3792  255 255 255
-6.47932 96.2318 -0.216009  255 255 255
-4.42668 94.8545 -1.81793  255 255 255
-16.03 78.0042 12.9599  255 255 255
117.549 68.6082 28.793  255 255 255
115.428 62.8333 32.5503  255 255 255
115.953 62.2744 33.4407  255 255 255
17.2771 61.625 3.37259  255 255 255
107.356 34.8796 45.6878  255 255 255
13.1834 42.1203 -5.41238  255 255 255
-27.3484 36.8532 15.4031  255 255 255
63.4689 23.8801 12.5287  255 255 255
88.3913 19.0429 34.3496  255 255 255
36.6239 5.11236 -20.2936  255 255 255
111.965 -4.91929 36.1884  255 255 255
-52.909 4.06087 107.91  255 255 255
-71.4703 2.76626 112.221  255 255 255
13.5033 -36.7381 -15.0827  255 255 255
12.8804 -38.9048 -15.2389  255 255 255
50.5939 -44.882 -22.2008  255 255 255
38.1416 -88.8418 -21.6796  255 255 255
-53.7923 -89.4512 100.777  255 255 255
-57.0071 -95.8801 100.537  255 255 255
41.0292 129.814 9.79404  255 255 255
18.9683 108.623 19.1416  255 255 255
-45.6569 78.1851 41.1591  255 255 255
-50.7522 77.6459 12.1742  255 255 255
59.5281 56.7183 23.5317  255 255 255
65.2954 54.0562 40.7274  255 255 255
2.02028 47.034 1.05997  255 255 255
50.9719 33.6903 -14.12  255 255 255
17.1998 27.355 -8.19122  255 255 255
66.477 24.6255 10.2543  255 255 255
24.1535 11.4157 -14.0574  255 255 255
-66.8394 -1.21827 123.223  255 255 255
75.2727 -28.1889 46.6199  255 255 255
-52.0425 -12.8765 110.563  255 255 255
-66.6976 -59.1891 107.095  255 255 255
18.6572 107.4 17.431  255 255 255
98.1367 78.8329 59.9103  255 255 255
45.4123 100.68 -24.4677  255 255 255
71.713 72.4165 63.1544  255 255 255
-6.55754 72.1569 9.56408  255 255 255
15.595 57.6758 -2.41472  255 255 255
57.465 3.84367 5.41174  255 255 255
85.8339 -4.47593 52.2219  255 255 255
2.44817 -26.9622 -2.05228  255 255 255
98.7264 -60.1138 41.1568  255 255 255
105.397 -67.9752 10.7376  255 255 255
4.29135 -47.4718 -8.66275  255 255 255
106.364 -64.7969 3.82236  255 255 255
43.4056 -98.4114 -26.4098  255 255 255
-46.5655 -92.5976 98.0486  255 255 255
39.1756 98.6532 -20.1367  255 255 255
60.7523 4.8208 8.95252  255 255 255
38.7245 -54.5446 -19.5094  255 255 255
16.9935 57.5656 5.63694  255 255 255
54.2493 67.4999 -2.71775  255 255 255
18.3758 102.099 3.16097  255 255 255
-11.8899 124.882 -15.5789  255 255 255
-5.39105 112.958 -3.10222  255 255 255
17.169 114.801 -12.2674  255 255 255
13.2079 130.749 -34.0112  255 255 255
26.7429 115.213 -17.5512  255 255 255
5.98598 105.588 -6.82075  255 255 255
-22.3944 114.57 -7.85322  255 255 255
4.08045 99.6352 0.401602  255 255 255
5.44777 98.5465 2.76958  255 255 255
-50.263 121.827 -13.1531  255 255 255
-212.972 251.201 -149.141  255 255 255
-25.6286 41.6806 74.7722  255 255 255
29.0834 89.1922 -15.5679  255 255 255
46.5434 89.2084 -24.7672  255 255 255
10.8349 80.6842 -0.218315  255 255 255
14.0264 91.6953 -17.8805  255 255 255
20.3335 67.4319 13.4398  255 255 255
80.1446 31.6019 45.3742  255 255 255
-40.9606 77.8395 14.5772  255 255 255
-2.37011 72.7581 6.55186  255 255 255
43.2287 73.871 -10.5957  255 255 255
44.4933 70.896 -7.24732  255 255 255
16.1451 68.6624 1.41222  255 255 255
-3.80741 58.8623 23.5666  255 255 255
-9.31531 54.0953 32.7451  255 255 255
-0.940684 58.6195 21.4771  255 255 255
-9.9267 62.6861 15.5519  255 255 255
-13.6742 55.7968 29.1989  255 255 255
14.5724 73.3309 -9.46966  255 255 255
-6.92355 53.4275 28.0952  255 255 255
-12.0961 50.6186 32.9264  255 255 255
-27.0285 69.2234 8.67534  255 255 255
-13.284 69.199 5.83889  255 255 255
-24.4463 77.4425 -4.69595  255 255 255
1.67586 67.8821 2.96386  255 255 255
42.9273 67.3224 -13.0055  255 255 255
28.2784 61.3589 -0.260452  255 255 255
-25.2963 12.8897 95.9297  255 255 255
18.6691 58.8387 5.11834  255 255 255
-36.4655 63.6432 16.5101  255 255 255
-27.0446 44.6512 41.5215  255 255 255
85.8574 11.7644 52.7925  255 255 255
51.4832 60.7452 -16.8376  255 255 255
31.7217 62.3062 -14.121  255 255 255
52.3672 56.444 -15.7345  255 255 255
-27.2146 38.0147 41.9575  255 255 255
-17.6251 58.5201 1.13497  255 255 255
37.3907 52.9785 -8.63689  255 255 255
-32.3079 1.69191 101.493  255 255 255
-28.021 14.7394 70.7608  255 255 255
42.9579 46.8665 -11.0761  255 255 255
-10.3987 48.0961 5.92201  255 255 255
-23.5866 46.9675 11.0077  255 255 255
-17.7274 44.3333 12.8387  255 255 255
89.8322 -3.59233 53.6186  255 255 255
-43.9555 38.8256 10.2106  255 255 255
45.4757 37.719 -22.0465  255 255 255
42.7984 33.6188 -13.833  255 255 255
-21.1555 32.7683 9.81759  255 255 255
-19.3003 32.9662 6.21105  255 255 255
-25.0709 -1.41034 71.5602  255 255 255
86.6809 -6.03941 39.5655  255 255 255
-32.347 -11.8325 90.2874  255 255 255
20.2617 28.003 -9.34031  255 255 255
35.0297 26.5848 -13.7017  255 255 255
-25.9191 22.7657 12.2701  255 255 255
44.4157 22.9929 -18.187  255 255 255
11.1301 27.6202 -17.1259  255 255 255
-36.4703 19.4803 14.6607  255 255 255
43.157 21.436 -19.1222  255 255 255
41.8435 24.8335 -24.3429  255 255 255
16.6984 24.3226 -15.7861  255 255 255
48.6383 23.7813 -25.492  255 255 255
-22.0637 -19.7496 87.2532  255 255 255
66.5851 2.18228 8.36216  255 255 255
-38.0734 -0.301228 45.7519  255 255 255
-34.022 16.0216 13.6824  255 255 255
66.8344 -6.18993 23.6093  255 255 255
-37.5556 0.684994 43.4894  255 255 255
-26.3016 12.1795 12.6513  255 255 255
-38.7939 6.17801 25.5166  255 255 255
11.5147 16.0168 -13.2037  255 255 255
-20.8888 -22.7621 84.047  255 255 255
-25.5305 11.0103 10.2157  255 255 255
-20.3232 -27.0046 91.9825  255 255 255
-41.8463 11.0442 12.3836  255 255 255
-45.6687 14.4079 9.10588  255 255 255
-26.2389 10.965 5.98835  255 255 255
-18.728 10.783 0.57846  255 255 255
52.4185 7.87113 -19.763  255 255 255
-40.5044 8.63986 10.6998  255 255 255
-36.1665 5.75626 13.6451  255 255 255
-26.2506 7.77525 5.14789  255 255 255
28.218 8.65775 -17.3655  255 255 255
-20.1798 -28.6733 86.001  255 255 255
43.3471 6.42388 -21.4989  255 255 255
-39.8469 4.97384 12.5271  255 255 255
47.189 5.96795 -22.6629  255 255 255
47.4878 6.18419 -24.1548  255 255 255
-1.95638 5.64306 -9.29812  255 255 255
-28.187 -20.1855 57.3419  255 255 255
-18.3254 4.02896 -2.4691  255 255 255
-27.4064 0.798989 7.15995  255 255 255
31.1729 0.251613 -16.2149  255 255 255
37.5263 -1.5017 -16.8374  255 255 255
53.4325 -3.73899 -18.0227  255 255 255
50.2811 -3.27217 -19.3895  255 255 255
-29.5394 -4.90888 10.7394  255 255 255
-32.1853 -23.1157 54.6718  255 255 255
24.1914 -2.19833 -11.1806  255 255 255
-32.3877 -23.0279 51.0664  255 255 255
-6.8568 -0.407298 -14.1301  255 255 255
-40.443 -20.1246 43.8437  255 255 255
29.05 -4.89272 -18.7731  255 255 255
-36.9467 -8.40204 12.1826  255 255 255
53.1278 -8.92048 -19.7638  255 255 255
-41.8672 -15.6664 27.3377  255 255 255
-25.5342 -8.68022 -15.6992  255 255 255
-21.5433 -41.5891 77.7992  255 255 255
-48.2331 -12.71 8.5895  255 255 255
59.1575 -23.692 -5.90239  255 255 255
43.9372 -16.3669 -23.1952  255 255 255
34.327 -14.5623 -26.2895  255 255 255
55.1956 -22.3256 -13.3053  255 255 255
-23.8074 -17.9394 -1.8845  255 255 255
-34.9669 -21.9265 8.26476  255 255 255
-36.2977 -30.201 33.8379  255 255 255
-16.0684 -19.9022 -10.1914  255 255 255
-0.373776 -22.7048 -10.2737  255 255 255
-12.9691 -25.6376 -2.35255  255 255 255
78.3895 -52.8607 57.6313  255 255 255
-27.2451 -26.7399 3.80156  255 255 255
3.86268 -25.6084 -9.24366  255 255 255
-19.3267 -25.5601 -4.42123  255 255 255
-10.3576 -28.0648 -9.01873  255 255 255
18.557 -27.5968 -17.3263  255 255 255
88.443 -53.2817 47.5315  255 255 255
-23.6765 -53.245 79.2032  255 255 255
-22.3251 -53.3835 79.456  255 255 255
-28.2193 -49.5911 66.5068  255 255 255
-28.8255 -26.7371 -13.6909  255 255 255
-26.6226 -27.5981 -9.97687  255 255 255
-32.819 -31.8691 3.94609  255 255 255
32.8226 -32.96 -18.3603  255 255 255
-6.97794 -33.3901 -3.11175  255 255 255
33.9873 -32.0564 -22.5691  255 255 255
-28.5486 -33.6435 3.721  255 255 255
10.655 -33.0189 -11.3529  255 255 255
29.468 -34.2272 -19.7992  255 255 255
-40.5868 -44.4552 36.9532  255 255 255
-45.2564 -37.4416 16.5387  255 255 255
-36.2126 -38.1316 7.0281  255 255 255
-41.2047 -41.5467 22.903  255 255 255
-41.6567 -38.0888 5.75709  255 255 255
-41.5286 -40.9299 8.072  255 255 255
33.9602 -38.8638 -18.8609  255 255 255
51.2352 -40.0099 -22.8951  255 255 255
-32.2806 -53.7241 51.5678  255 255 255
6.59236 -40.7366 -19.6381  255 255 255
41.1339 -42.1566 -23.1933  255 255 255
-33.5861 -54.0401 49.0115  255 255 255
-22.7524 -62.8896 78.0163  255 255 255
-35.5497 -56.7591 52.616  255 255 255
-22.6706 -69.8606 100.594  255 255 255
-36.2977 -46.6472 7.56242  255 255 255
30.9577 -45.6562 -20.0512  255 255 255
-6.95929 -46.4723 -6.61751  255 255 255
0.655888 -48.1268 -6.52595  255 255 255
-0.00418839 -47.0549 -6.47753  255 255 255
-29.9994 -45.655 -2.82428  255 255 255
-20.7437 -47.7528 -1.43596  255 255 255
42.1161 -48.7013 -21.6549  255 255 255
-47.4412 -48.6087 5.32192  255 255 255
3.57101 -51.2887 -9.90238  255 255 255
3.02994 -49.5717 -12.6747  255 255 255
-16.289 -50.4667 -3.39114  255 255 255
16.4557 -50.0632 -17.4969  255 255 255
26.0149 -51.166 -20.5664  255 255 255
-20.086 -70.658 81.2385  255 255 255
-14.4941 -49.6148 -8.2252  255 255 255
-44.1086 -54.6225 23.0678  255 255 255
-38.0253 -58.1869 32.0932  255 255 255
-13.4019 -52.0448 -4.21322  255 255 255
4.77432 -51.9495 -12.7161  255 255 255
67.8457 -71.0875 48.7909  255 255 255
-12.9758 -53.1588 -10.43  255 255 255
-12.9952 -53.3628 -11.5829  255 255 255
-4.81494 -54.4079 -10.2119  255 255 255
-2.57936 -55.8882 -4.99111  255 255 255
-22.3655 -70.4591 65.1973  255 255 255
12.2993 -55.7104 -15.035  255 255 255
-26.9314 -56.5983 2.43222  255 255 255
72.6353 -80.4826 75.6635  255 255 255
-28.8944 -69.8292 55.7384  255 255 255
30.9892 -58.4693 -20.2675  255 255 255
31.0244 -58.3093 -20.6421  255 255 255
-24.2277 -58.6971 -1.81519  255 255 255
34.1486 -58.6092 -20.9846  255 255 255
-27.4372 -58.927 -1.33608  255 255 255
-40.4054 -59.7767 4.6702  255 255 255
33.0271 -59.4858 -20.3059  255 255 255
46.7655 -59.8988 -25.0482  255 255 255
-35.8666 -60.5237 0.590199  255 255 255
35.3781 -61.6739 -21.6697  255 255 255
-33.793 -62.9127 1.1159  255 255 255
-29.922 -61.688 -8.99297  255 255 255
32.557 -63.1426 -19.8322  255 255 255
32.3002 -63.4979 -19.6719  255 255 255
-40.6571 -63.5555 0.278774  255 255 255
-37.2217 -71.4711 29.6041  255 255 255
-42.4711 -67.0117 18.6397  255 255 255
-45.4721 -65.605 2.24707  255 255 255
-25.7598 -66.4191 -7.65756  255 255 255
-29.3348 -78.6315 60.6988  255 255 255
-29.2983 -77.9023 61.0184  255 255 255
-27.1088 -66.0714 -14.9143  255 255 255
65.1694 -81.2583 49.3578  255 255 255
67.325 -84.1238 53.955  255 255 255
-23.5306 -69.5652 -3.02062  255 255 255
77.6509 -86.1062 53.4308  255 255 255
-22.6377 -88.5196 83.2298  255 255 255
-34.7426 -77.7172 2.88969  255 255 255
-41.9518 -72.1386 -39.8882  255 255 255
28.2907 -77.7398 -21.4292  255 255 255
-33.4866 -85.4865 39.3693  255 255 255
33.6568 -81.6569 -14.1704  255 255 255
-45.1837 -83.678 21.083  255 255 255
-25.6743 -90.4144 62.7482  255 255 255
33.965 -80.8418 -26.1905  255 255 255
30.8119 -83.4853 -22.4018  255 255 255
52.1771 -84.7123 -16.2112  255 255 255
51.93 -85.6222 -16.7493  255 255 255
66.5064 -91.3699 36.8841  255 255 255
-52.8676 -87.8634 16.0903  255 255 255
23.735 -85.8739 -19.553  255 255 255
-16.7346 -96.3525 84.7416  255 255 255
-24.5397 -95.4807 64.103  255 255 255
-47.7925 -87.6686 0.626512  255 255 255
-33.5874 -92.152 25.5837  255 255 255
-34.8664 -89.2095 -4.73232  255 255 255
-29.4087 -88.9292 -3.11563  255 255 255
-47.4025 -91.4831 -2.21484  255 255 255
42.4084 -90.5867 -28.8294  255 255 255
-25.2274 -98.6364 60.6075  255 255 255
-48.6996 -91.9031 -7.19078  255 255 255
27.0814 -93.3325 -13.6405  255 255 255
-42.0124 -99.9135 60.0029  255 255 255
32.3064 -92.9569 -21.2793  255 255 255
44.0407 -96.0663 -22.7637  255 255 255
23.7624 -97.7922 -28.7576  255 255 255
28.8724 -98.6055 -29.682  255 255 255
-20.3142 -102.423 5.84219  255 255 255
46.7092 -102.957 -24.57  255 255 255
-43.2184 -106.242 33.6585  255 255 255
24.1448 -104.821 -16.5995  255 255 255
43.0359 -104.35 -24.9637  255 255 255
75.1217 -108.954 50.1557  255 255 255
-29.4569 -111.558 13.3772  255 255 255
-35.4629 -110.013 -4.12464  255 255 255
-34.4783 -111.118 -2.64731  255 255 255
22.175 -113.512 -28.7709  255 255 255
54.6263 -113.958 -35.9941  255 255 255
30.4267 -113.679 -23.1403  255 255 255
42.6112 -114.407 -31.1617  255 255 255
-44.3399 -119.436 -3.69401  255 255 255
23.9368 -117.757 -28.8167  255 255 255
48.3879 -117.6 -37.0541  255 255 255
27.5698 -118.553 -24.7927  255 255 255
-50.3294 -122.092 -3.58977  255 255 255
32.41 -121.676 -30.7249  255 255 255
41.394 -122.172 -36.0033  255 255 255
26.3827 -124.101 -28.4478  255 255 255
29.3139 -123.277 -32.2601  255 255 255
32.4808 -128.075 -32.461  255 255 255
44.6534 -126.894 -35.0784  255 255 255
-35.4909 -127.653 13.5211  255 255 255
-40.0424 -131.086 2.74153  255 255 255
4.94227 109.01 -10.2195  255 255 255
6.63614 80.7956 4.27931  255 255 255
39.6838 84.5434 -16.1995  255 255 255
39.5741 96.3568 -35.4097  255 255 255
38.9141 81.6997 -13.0206  255 255 255
42.9236 75.5183 -8.2107  255 255 255
45.8767 68.6221 -6.66334  255 255 255
39.5439 67.7413 -1.33648  255 255 255
49.0357 72.3738 -17.4581  255 255 255
9.31191 71.1507 -4.5623  255 255 255
-25.942 62.2476 17.4401  255 255 255
-41.8343 66.093 18.158  255 255 255
33.6494 69.196 -15.163  255 255 255
11.1027 62.0737 1.08379  255 255 255
-1.74153 63.0517 3.46488  255 255 255
18.1229 58.3856 -1.398  255 255 255
26.5715 61.8584 -17.2758  255 255 255
44.2452 53.5735 -11.3666  255 255 255
-33.7407 41.3723 32.4283  255 255 255
-23.8275 47.9278 12.4465  255 255 255
40.1762 48.1959 -8.68109  255 255 255
-47.266 48.5262 12.5605  255 255 255
-23.5604 5.87306 77.5546  255 255 255
81.0935 -7.34474 59.1173  255 255 255
-14.6736 41.0625 5.46203  255 255 255
-21.6097 39.3166 3.8167  255 255 255
-40.6956 28.8428 26.5713  255 255 255
-2.52317 37.6356 -0.635026  255 255 255
31.471 38.3694 -20.3681  255 255 255
-15.9899 32.7248 3.49444  255 255 255
-32.0953 17.8568 13.959  255 255 255
69.0276 -3.52817 24.0887  255 255 255
-38.2998 14.3006 20.8975  255 255 255
-36.8937 12.9467 23.6509  255 255 255
66.6226 -1.92331 0.404668  255 255 255
48.4467 7.73228 -23.768  255 255 255
54.8115 1.49802 -16.9499  255 255 255
14.9382 -13.342 37.7273  255 255 255
0.622305 4.73323 -16.5984  255 255 255
20.9102 -1.4628 -16.6193  255 255 255
-12.9344 0.416574 -7.35321  255 255 255
-8.19091 -0.89583 -9.50348  255 255 255
-7.42439 -1.67863 -8.26057  255 255 255
-9.30602 -2.09753 -8.2122  255 255 255
4.21325 -1.11752 -14.049  255 255 255
0.823876 -0.719747 -18.0014  255 255 255
-1.79081 -3.59397 -8.55367  255 255 255
-10.6908 -3.74171 -7.70245  255 255 255
-10.0477 -4.92648 -7.59561  255 255 255
-14.3496 -3.28334 -7.85133  255 255 255
1.10071 -3.13412 -12.2979  255 255 255
1.45781 -2.40157 -16.6242  255 255 255
1.45134 -2.95806 -12.5478  255 255 255
-1.66709 -3.40485 -12.6567  255 255 255
-1.29784 -3.5619 -13.3585  255 255 255
-15.1692 -5.06673 -8.43294  255 255 255
-15.3502 -5.26519 -9.13136  255 255 255
-21.1979 -41.2407 77.6828  255 255 255
-30.7924 -36.7449 60.8038  255 255 255
-35.5544 -16.713 3.8093  255 255 255
59.3391 -26.1205 -1.20387  255 255 255
-12.4209 -14.5116 -12.4138  255 255 255
-42.3775 -23.6395 21.5627  255 255 255
-46.1291 -21.0452 14.542  255 255 255
-31.1164 -24.8835 7.61924  255 255 255
85.2476 -48.8687 47.1628  255 255 255
-32.1682 -25.3862 7.6024  255 255 255
79.823 -54.2297 54.6845  255 255 255
-21.898 -51.4844 78.1523  255 255 255
-41.4436 -34.5702 25.7274  255 255 255
-22.0125 -33.0471 -0.866007  255 255 255
-47.792 -34.5936 7.47621  255 255 255
-36.446 -38.0534 7.41788  255 255 255
68.4788 -60.3831 56.5172  255 255 255
36.6929 -38.0733 -20.0104  255 255 255
38.2628 -39.9664 -20.3282  255 255 255
4.25765 -41.4618 -20.1788  255 255 255
4.17432 -42.7396 -20.3297  255 255 255
5.07052 -42.6019 -18.3172  255 255 255
-17.7143 -46.5297 -3.36729  255 255 255
-43.17 -47.4969 7.40383  255 255 255
-3.146 -46.7835 -10.9708  255 255 255
38.5753 -48.2289 -20.1644  255 255 255
7.89123 -49.6906 -12.4004  255 255 255
20.0168 -48.482 -19.3271  255 255 255
-20.1361 -70.039 76.3913  255 255 255
-38.3464 -53.5263 0.26365  255 255 255
15.6727 -55.0089 -14.1465  255 255 255
46.6813 -55.8897 -25.7198  255 255 255
-22.9849 -71.7466 71.596  255 255 255
37.4771 -57.0302 -26.1161  255 255 255
65.6065 -74.5695 49.3868  255 255 255
39.3952 -59.1955 -25.3731  255 255 255
34.8663 -58.9054 -24.9789  255 255 255
-17.3573 -78.6953 83.3616  255 255 255
-23.3886 -66.2439 3.95789  255 255 255
-36.6051 -67.5828 2.70973  255 255 255
-29.0253 -80.8554 71.6648  255 255 255
-14.5514 -84.2283 83.2947  255 255 255
43.9149 -72.0804 -21.9313  255 255 255
-28.2179 -82.8585 66.2398  255 255 255
-33.2717 -79.6075 35.9822  255 255 255
79.1962 -90.9803 57.5055  255 255 255
-26.2217 -82.3552 -3.17007  255 255 255
69.4434 -93.342 54.6182  255 255 255
77.6703 -93.3599 56.0102  255 255 255
-35.2187 -82.4605 -1.55857  255 255 255
55.2271 -84.2035 -13.5915  255 255 255
76.3694 -92.2972 50.5899  255 255 255
-37.6833 -91.1666 43.38  255 255 255
-32.8782 -85.2219 -9.34271  255 255 255
